# .PCD v0.7 - Point Cloud Data file format
VERSION 0.7
FIELDS x y z
SIZE 4 4 4
TYPE F F F
COUNT 1 1 1
WIDTH 1382
HEIGHT 1
VIEWPOINT 0 0 0 1 0 0 0
POINTS 1382
DATA ascii
0.49976999 -0.36473042 0.090746664
0.50657225 -0.36490372 0.09055189
0.50730169 -0.36482739 0.090532094
0.51190662 -0.3665584 0.090381622
0.51347315 -0.36630595 0.090340137
0.51503962 -0.36605352 0.090298653
0.49307546 -0.36226654 0.090964809
0.4952828 -0.36266556 0.090397418
0.49803272 -0.36292061 0.090816788
0.49999407 -0.36320218 0.090757944
0.47361732 -0.35967112 0.089545265
0.49465436 -0.36116919 0.08993227
0.44675085 -0.3574861 0.089331403
0.44854707 -0.35731119 0.089828223
0.45018423 -0.35743484 0.089234687
0.47365314 -0.35872865 0.089555137
0.44678888 -0.35477918 0.089736745
0.44867334 -0.35498554 0.089705974
0.45028019 -0.35490912 0.089261129
0.44685656 -0.35351545 0.089374237
0.4484252 -0.35329774 0.089665778
0.51669538 -0.38000578 0.093092106
0.51881218 -0.38080147 0.093022935
0.52130228 -0.38079306 0.092952475
0.52311939 -0.38045242 0.092904903
0.5162757 -0.3783682 0.093122907
0.51866579 -0.37837556 0.093055084
0.52119118 -0.37836221 0.092983678
0.52355647 -0.37775403 0.092923641
0.51416183 -0.37550327 0.093215868
0.51620638 -0.3756721 0.092895001
0.51860416 -0.37559029 0.092784479
0.52115011 -0.37544608 0.092860512
0.52389842 -0.37551782 0.092809282
0.52637613 -0.37546155 0.092870213
0.52823699 -0.37491807 0.092823744
0.5360778 -0.37568936 0.093593098
0.50522274 -0.3725166 0.093503676
0.50901175 -0.37235257 0.093398191
0.51122922 -0.37251291 0.093333483
0.51353878 -0.37327698 0.092925735
0.51599061 -0.37308487 0.09203352
0.51866961 -0.37317637 0.092114508
0.5211888 -0.37327304 0.092167057
0.52395624 -0.37315977 0.092204988
0.52666205 -0.37311107 0.092460446
0.52882069 -0.37276447 0.092832059
0.53080356 -0.37194663 0.092785299
0.53458905 -0.37277111 0.092668504
0.53569221 -0.37243772 0.092641085
0.49871463 -0.36920345 0.092725873
0.49963811 -0.36923826 0.092699297
0.5034833 -0.37053344 0.093575858
0.50576198 -0.37062302 0.093510248
0.50835901 -0.37044546 0.093211301
0.51061952 -0.37054318 0.09287326
0.51342165 -0.37051755 0.091722228
0.51616204 -0.3707566 0.091546513
0.51835603 -0.37043548 0.091954932
0.52129763 -0.37069321 0.091285706
0.52392131 -0.37053269 0.091710344
0.52668244 -0.37082973 0.092057429
0.52917153 -0.37122145 0.09267316
0.49355179 -0.36715862 0.092895783
0.49555847 -0.36708009 0.092839822
0.49812514 -0.36766565 0.092315689
0.5002951 -0.36773714 0.092580311
0.50316882 -0.36779934 0.092815936
0.50575942 -0.36822143 0.092737652
0.50822538 -0.36778912 0.092032462
0.51084542 -0.36782455 0.091936246
0.5135507 -0.36802688 0.09131854
0.51605493 -0.3680504 0.091247283
0.51853442 -0.36852247 0.091571763
0.52117473 -0.36853892 0.091096565
0.52322316 -0.36856851 0.091038167
0.4751524 -0.3646149 0.093446583
0.4770855 -0.36463168 0.093391605
0.47932205 -0.36477211 0.093326591
0.48224539 -0.36453962 0.09324643
0.48490772 -0.36500841 0.092954941
0.48736927 -0.36500171 0.093018934
0.48992804 -0.36517179 0.093021415
0.49274179 -0.36529678 0.092786297
0.4952099 -0.36524293 0.092396997
0.49782079 -0.36560571 0.091792263
0.50068963 -0.365403 0.092013434
0.50288284 -0.36552313 0.092587695
0.50590384 -0.3656947 0.091962337
0.50791168 -0.3656497 0.091505781
0.51092243 -0.366142 0.091414772
0.51308417 -0.36632678 0.091351368
0.47240978 -0.36197603 0.093554758
0.47461209 -0.36260727 0.09348505
0.47708127 -0.36252898 0.093415983
0.47968742 -0.36253393 0.093175329
0.48227423 -0.36259338 0.092517734
0.48477212 -0.36273885 0.092345215
0.48754603 -0.36281803 0.092357114
0.49017927 -0.36277232 0.092179514
0.49243921 -0.36290622 0.092034772
0.4952606 -0.36338222 0.091890484
0.49675751 -0.36385185 0.091842636
0.50086594 -0.36362857 0.091978893
0.44306803 -0.35898006 0.092419952
0.45293123 -0.35941064 0.093135908
0.46678287 -0.35956642 0.092741564
0.46889374 -0.35923743 0.092685536
0.47221011 -0.35995105 0.093297936
0.47451159 -0.36006075 0.093088523
0.47700745 -0.36020952 0.093373381
0.4797053 -0.36075044 0.092424214
0.48241293 -0.36052468 0.091453843
0.48488757 -0.36081344 0.091521457
0.48741895 -0.36110142 0.091513753
0.4897016 -0.36091566 0.091076016
0.44344985 -0.35712549 0.092430525
0.44502819 -0.35656202 0.092392296
0.44823259 -0.3572287 0.091865018
0.45201883 -0.35733074 0.093185768
0.4531787 -0.357162 0.092923969
0.45551211 -0.35671854 0.093093842
0.4646512 -0.35809609 0.092818938
0.46705106 -0.35779321 0.092671059
0.46933275 -0.35765341 0.092322782
0.47173306 -0.35789812 0.092620522
0.47427315 -0.35845238 0.092685059
0.44389781 -0.35492036 0.092228897
0.44550037 -0.35544059 0.091664247
0.4518466 -0.35534063 0.093213618
0.45355943 -0.35554579 0.092798904
0.50950891 -0.37960342 0.09530136
0.51111114 -0.37991035 0.095002286
0.51425326 -0.38040215 0.094157219
0.51626903 -0.38035598 0.094100624
0.51798493 -0.3807056 0.094047964
0.52408087 -0.38048136 0.093877792
0.52663404 -0.38062453 0.093803771
0.52907175 -0.38071644 0.093733631
0.53148663 -0.38020149 0.094286814
0.50877875 -0.37827426 0.095337391
0.51101202 -0.37817404 0.095039852
0.51348352 -0.37832642 0.09420298
0.51511264 -0.37866402 0.09415292
0.5242008 -0.37856039 0.09389656
0.52660829 -0.37834218 0.093830846
0.52916437 -0.37827784 0.093759142
0.53156608 -0.37841216 0.093871444
0.5339483 -0.37823093 0.094320104
0.48481095 -0.37442076 0.09606111
0.4978469 -0.37491208 0.095685989
0.50066859 -0.37484488 0.095606804
0.50319177 -0.37487057 0.095534995
0.50585496 -0.37509242 0.095456965
0.50825673 -0.37542319 0.095227115
0.51071906 -0.37554967 0.094722658
0.51314902 -0.37591052 0.094240345
0.52433527 -0.3768748 0.093912207
0.52670997 -0.37594679 0.093855612
0.52926862 -0.37553442 0.093787864
0.53170633 -0.37562633 0.093717724
0.53426141 -0.37594315 0.093879864
0.53572178 -0.37579441 0.09417367
0.48061275 -0.37304771 0.096195921
0.48213723 -0.37287742 0.096154675
0.48483694 -0.3729755 0.096077047
0.48750553 -0.37275073 0.096004009
0.49003378 -0.37279537 0.09593185
0.49281636 -0.37315598 0.095848829
0.49553609 -0.37321717 0.095771044
0.49800181 -0.37298146 0.095573395
0.50035673 -0.37291458 0.095456012
0.5031386 -0.37305567 0.095078953
0.50577384 -0.37332126 0.09470661
0.50825471 -0.3731223 0.094611317
0.51085955 -0.37328532 0.094418906
0.5294885 -0.37318784 0.093808711
0.53179896 -0.37318772 0.093743235
0.53420705 -0.37344286 0.093672045
0.53595573 -0.37354791 0.093621276
0.47508541 -0.36923301 0.094395652
0.48253092 -0.37028846 0.096040018
0.48495609 -0.37027714 0.095864706
0.48752293 -0.3704356 0.095530011
0.48996961 -0.37038425 0.095601328
0.49266392 -0.37040329 0.09520603
0.4952212 -0.37060052 0.094872229
0.49772131 -0.37058553 0.094686359
0.50046569 -0.37049454 0.09441217
0.50258195 -0.37073144 0.09423577
0.50654221 -0.37132001 0.094480559
0.50745636 -0.37135449 0.094454251
0.51184714 -0.37090945 0.094334953
0.5128988 -0.37107119 0.094303295
0.52972388 -0.37158322 0.09382055
0.53185689 -0.37166363 0.093759179
0.47230148 -0.36763832 0.095493414
0.47469959 -0.36759889 0.095057324
0.47712392 -0.36748472 0.095091738
0.47967499 -0.36772838 0.095133349
0.4822911 -0.36788592 0.095290832
0.48494706 -0.36785308 0.09518522
0.48752239 -0.36764905 0.094581708
0.4901683 -0.36795533 0.094575845
0.49267936 -0.36799195 0.094111457
0.49530706 -0.36808863 0.0939411
0.4976286 -0.36854488 0.094193496
0.50069368 -0.36870793 0.093675971
0.50264603 -0.3683542 0.093624733
0.51090091 -0.36904222 0.094383314
0.45859382 -0.36432344 0.095920146
0.46483511 -0.36455125 0.094740167
0.46697932 -0.36448687 0.095680624
0.46945804 -0.3647624 0.095507145
0.47197598 -0.36530274 0.095138118
0.47434112 -0.36541486 0.094578497
0.47701603 -0.36574665 0.094581261
0.47998813 -0.36558291 0.094423898
0.48229191 -0.36566275 0.094470829
0.48474953 -0.36613905 0.094339378
0.48737299 -0.36579114 0.094087146
0.49011108 -0.36585453 0.094008811
0.49207002 -0.36619133 0.093949415
0.45443201 -0.36141926 0.096071601
0.45665434 -0.36214539 0.095625073
0.45882657 -0.36248034 0.095934823
0.46139324 -0.36217999 0.095309734
0.4640699 -0.36246365 0.094685897
0.46676925 -0.36282259 0.094974667
0.46931273 -0.36269173 0.094741926
0.47170761 -0.36287874 0.094623566
0.4736692 -0.36345235 0.094502486
0.4820329 -0.36397213 0.094259471
0.44342956 -0.35963309 0.09540356
0.44553787 -0.35903758 0.095350683
0.45170647 -0.35939902 0.095922045
0.45407256 -0.35987145 0.095826812
0.45628092 -0.36022696 0.095510989
0.45920151 -0.35997507 0.095498353
0.46164784 -0.3600907 0.094756909
0.464187 -0.36011803 0.094087139
0.46662092 -0.36063829 0.094067737
0.4692058 -0.36013851 0.093666762
0.47107753 -0.3598974 0.0936165
0.44176796 -0.35815915 0.095467657
0.44337136 -0.35755566 0.095095702
0.44572777 -0.35750741 0.095029473
0.44835386 -0.35737187 0.095290102
0.45124334 -0.35730758 0.094998337
0.45413443 -0.35750183 0.095124781
0.45606822 -0.35778093 0.095191814
0.45880002 -0.35791722 0.094987772
0.46151134 -0.35799325 0.094076328
0.46429291 -0.35834655 0.093826681
0.47015333 -0.35825902 0.093661606
0.44404453 -0.35551691 0.094683275
0.44605622 -0.35547125 0.094684519
0.44841412 -0.35564172 0.095197201
0.45010757 -0.35574993 0.09485893
0.4548322 -0.35583133 0.094123811
0.48565257 -0.37741596 0.097003162
0.48780528 -0.37754026 0.096940711
0.49017668 -0.37758645 0.096872985
0.4925895 -0.37767744 0.096803546
0.49530402 -0.37777972 0.096725427
0.49812284 -0.37778527 0.096645497
0.50044274 -0.37767124 0.096581064
0.5031572 -0.37777355 0.096502945
0.50587165 -0.37787583 0.096424848
0.50737977 -0.3779327 0.096381448
0.48304123 -0.37459823 0.097109683
0.48560145 -0.37550393 0.0971696
0.4874492 -0.37574613 0.097062461
0.49024549 -0.37577617 0.096891902
0.49265832 -0.37586713 0.0968225
0.49527633 -0.37574247 0.096749738
0.49791744 -0.37561932 0.096676305
0.50052297 -0.37555927 0.09660317
0.50291348 -0.37570983 0.096533686
0.50545466 -0.37593403 0.096459068
0.50742561 -0.37672585 0.096394077
0.47297731 -0.37204596 0.098424807
0.47423843 -0.37221351 0.098053657
0.47991744 -0.3721711 0.096225753
0.48287836 -0.37358496 0.097125985
0.48508251 -0.37386945 0.097060241
0.48751843 -0.3735584 0.096994802
0.49011186 -0.37361303 0.096920662
0.49272704 -0.37405688 0.09684144
0.49515137 -0.37384608 0.096775159
0.46679169 -0.36979601 0.098375954
0.46976793 -0.36952031 0.098544911
0.4720993 -0.3701092 0.098472051
0.47459689 -0.37054402 0.098396257
0.47726187 -0.37024993 0.097723842
0.47973314 -0.37044999 0.096250832
0.4813343 -0.37003788 0.096210212
0.50218004 -0.37169385 0.096600801
0.46237189 -0.36737153 0.098529197
0.46401677 -0.36742336 0.098331913
0.46668515 -0.36772844 0.098081268
0.46937871 -0.36775789 0.09803436
0.47187334 -0.36814636 0.098310538
0.47454634 -0.36840484 0.097850673
0.47700548 -0.36821362 0.097054265
0.47968727 -0.36863953 0.09627302
0.48168355 -0.36883622 0.096214183
0.45311618 -0.36460745 0.098073043
0.45949748 -0.36443233 0.097751312
0.4618144 -0.36488497 0.097823344
0.46401414 -0.36520782 0.097757272
0.46672571 -0.36522624 0.097263344
0.46929651 -0.3657698 0.096750684
0.47149745 -0.36617884 0.098534465
0.44095016 -0.36153036 0.098453343
0.44404846 -0.36163843 0.096363351
0.44595075 -0.36184245 0.096450008
0.44758552 -0.36178043 0.098262414
0.45171151 -0.3621875 0.097974032
0.45316237 -0.36265647 0.097493976
0.45937201 -0.36317852 0.097054698
0.46146154 -0.36274225 0.097707987
0.46414778 -0.3628282 0.097714253
0.46572137 -0.3627688 0.097403549
0.44095573 -0.35993743 0.098471567
0.44334593 -0.36012495 0.096845374
0.44598675 -0.36012945 0.096468754
0.44860721 -0.36013624 0.097430624
0.45085058 -0.3603076 0.097353153
0.45304528 -0.36028579 0.097124457
0.46168751 -0.36084437 0.097873561
0.46331495 -0.36116469 0.097823739
0.44115049 -0.35805759 0.098187588
0.44230044 -0.35834512 0.097784854
0.44599259 -0.35865912 0.096342631
0.44859055 -0.35824043 0.096273832
0.45066595 -0.35773632 0.096220836
0.45265698 -0.35772008 0.097165078
0.47237456 -0.37494624 0.099408895
0.47327009 -0.37497997 0.099383123
0.47725692 -0.37444308 0.10027679
0.47960067 -0.37476051 0.099873222
0.48253205 -0.37510478 0.099119201
0.48432589 -0.37509766 0.099068455
0.46684229 -0.37281492 0.10059074
0.46927333 -0.37324977 0.1005168
0.47175056 -0.37287712 0.10001321
0.47463521 -0.37315613 0.10001796
0.47708648 -0.37290356 0.099819183
0.47958115 -0.37307245 0.099862933
0.48210546 -0.37321982 0.099153042
0.48423898 -0.37344971 0.099089921
0.46493202 -0.37011144 0.10067607
0.46670234 -0.37047565 0.10062168
0.46929702 -0.37054911 0.10032982
0.47171596 -0.37075767 0.099930651
0.47459641 -0.37154129 0.099385224
0.47712252 -0.37085724 0.099321529
0.47967508 -0.37074769 0.099650636
0.45932198 -0.36734876 0.098966062
0.4614836 -0.36737895 0.099962838
0.46431568 -0.36764896 0.10061079
0.46629953 -0.36855665 0.10065526
0.46918043 -0.36854655 0.10007349
0.4709273 -0.36885005 0.10052072
0.44641644 -0.36435658 0.10126721
0.44841987 -0.36484855 0.10120475
0.45126498 -0.36453632 0.10034958
0.45726049 -0.36461651 0.10095689
0.458931 -0.36531293 0.099234074
0.46127716 -0.36554068 0.098985389
0.44089741 -0.36224869 0.099447012
0.44340822 -0.3622447 0.10069231
0.44590917 -0.3626785 0.10084239
0.44848692 -0.36273623 0.10040867
0.45088059 -0.36277601 0.099899083
0.4536536 -0.36311695 0.10085409
0.45645988 -0.36336568 0.10072117
0.45997024 -0.36311561 0.09989696
0.44105175 -0.36082312 0.099459089
0.44351041 -0.36023307 0.10002811
0.4460316 -0.36019805 0.10032564
0.4483718 -0.36101252 0.099649645
0.45090064 -0.36118373 0.099842787
0.44326025 -0.35821432 0.09999831
0.44519281 -0.35867125 0.10036704
0.46279132 -0.3719255 0.10271673
0.46407959 -0.37230268 0.10184214
0.4705776 -0.37320518 0.10148084
0.47116837 -0.37322742 0.10146384
0.47356516 -0.37243003 0.10140512
0.45393899 -0.37002006 0.10399007
0.45656952 -0.37011924 0.10391437
0.45898736 -0.37015012 0.10376854
0.46134517 -0.37036189 0.10314436
0.46365976 -0.3705996 0.10181812
0.47130308 -0.36968154 0.10150094
0.47363251 -0.37065709 0.10142367
0.44621029 -0.36688524 0.10324481
0.4477281 -0.36731341 0.10219637
0.45433348 -0.36733234 0.10340963
0.45637712 -0.36781463 0.10382636
0.45901936 -0.36794525 0.10366996
0.46134511 -0.36801931 0.10308865
0.46367809 -0.36794147 0.10173712
0.47132555 -0.36909056 0.10150713
0.44109556 -0.36468104 0.1034152
0.44333896 -0.36501086 0.10334781
0.44589993 -0.36531731 0.10300235
0.44828507 -0.36512473 0.10259064
0.45105305 -0.36488953 0.1031306
0.45385677 -0.36519021 0.10283018
0.45628816 -0.36547208 0.1031495
0.45872656 -0.36560878 0.10316582
0.46141261 -0.36590979 0.1038257
0.46314445 -0.3664149 0.10176985
0.43781939 -0.36313477 0.10352588
0.44081146 -0.36292428 0.10299331
0.44323504 -0.36278045 0.10269435
0.44529343 -0.36371037 0.10247371
0.4489888 -0.36345765 0.10320561
0.45196173 -0.36321509 0.10287405
0.45356169 -0.36309788 0.10270499
0.45596769 -0.36345068 0.10256327
0.44108433 -0.36055243 0.10333811
0.44214284 -0.35943595 0.10144511
0.44368193 -0.36923289 0.10529031
0.44601092 -0.36956722 0.10497032
0.44862422 -0.36941916 0.1051481
0.45125329 -0.3697648 0.10481948
0.45325881 -0.36993721 0.10415323
0.45502019 -0.36966023 0.10496405
0.44075552 -0.36748087 0.10582224
0.44325799 -0.36774343 0.10547747
0.44586721 -0.36755231 0.10493992
0.44835848 -0.36781463 0.10501617
0.45108545 -0.36790487 0.10468183
0.45370099 -0.36793655 0.10427097
0.45505333 -0.36878777 0.10497318
0.44068536 -0.36531013 0.10537286
0.44324446 -0.36555046 0.10522013
0.44609728 -0.36629117 0.10465552
0.44874063 -0.36572778 0.10454003
0.45108289 -0.36538908 0.10416796
0.45360914 -0.36637694 0.10404146
0.43820933 -0.36301133 0.10514203
0.43987188 -0.36339998 0.10532267
0.44952911 -0.36282668 0.10419805
0.45089683 -0.3627806 0.10415983
0.50860345 -0.33612636 0.023125
0.51099467 -0.3367227 0.022494461
0.5135116 -0.33621648 0.022984689
0.52228844 -0.33640492 0.022733465
0.52483499 -0.3365007 0.022660092
0.52675295 -0.33636028 0.022607297
0.52824652 -0.33620387 0.022566706
0.54810625 -0.33553487 0.023011327
0.50813973 -0.33402714 0.022662064
0.51076704 -0.33443698 0.022182602
0.51384401 -0.33384693 0.022902464
0.51644623 -0.33354905 0.022932101
0.51899284 -0.33364481 0.022858733
0.52163023 -0.33414793 0.022778105
0.52417678 -0.33424377 0.022704747
0.52661324 -0.33444169 0.022633331
0.5288282 -0.33367464 0.022579303
0.54796702 -0.33362329 0.023037262
0.54947114 -0.33304447 0.023001239
0.58453673 -0.33359608 0.023000307
0.52153283 -0.33141106 0.022562236
0.52404547 -0.33167863 0.02263793
0.52680117 -0.33172762 0.022659218
0.52928853 -0.33114088 0.022595385
0.53156292 -0.33094296 0.022533124
0.53356504 -0.33045137 0.022481978
0.53725594 -0.33131409 0.023367768
0.53962719 -0.33131856 0.02330042
0.54236251 -0.33065891 0.023230394
0.54501361 -0.33094019 0.02315193
0.54742086 -0.33127284 0.023079792
0.54995811 -0.3313683 0.023006698
0.55251145 -0.33104068 0.022938013
0.55484521 -0.33091664 0.022873215
0.55760199 -0.33080855 0.022796234
0.55929345 -0.33087218 0.022747517
0.56440002 -0.33021703 0.022610128
0.57130516 -0.33204317 0.023393646
0.57302237 -0.33126366 0.02335388
0.57555026 -0.33135873 0.023281043
0.57860619 -0.33088282 0.023199815
0.5812422 -0.33066845 0.023127476
0.58399272 -0.33125424 0.023042688
0.5319317 -0.32868922 0.022548586
0.53447831 -0.328785 0.022475222
0.53715253 -0.32909536 0.022577671
0.53972238 -0.32913473 0.02282262
0.54226196 -0.32883644 0.022698402
0.54490948 -0.32875612 0.022957692
0.54744947 -0.32885164 0.022884509
0.54987246 -0.32875785 0.022372188
0.55248773 -0.32872131 0.022548517
0.5550226 -0.32890105 0.022791322
0.55766606 -0.32911646 0.022813877
0.56020331 -0.32921195 0.022740789
0.56282914 -0.32900259 0.022668678
0.57309949 -0.32893935 0.022923678
0.57563019 -0.32925144 0.023303023
0.57810181 -0.32880723 0.023238003
0.53966802 -0.32642913 0.022355059
0.54221457 -0.32652494 0.022281697
0.54476112 -0.32662073 0.022208333
0.51875806 -0.33808583 0.024815232
0.52471995 -0.33804411 0.023646072
0.52683431 -0.33812368 0.02358515
0.52852577 -0.33818728 0.023536414
0.53260374 -0.33802536 0.025423497
0.53344327 -0.33805692 0.025399327
0.5077461 -0.33672786 0.024142861
0.51373613 -0.33713084 0.024468474
0.51624489 -0.33655515 0.024995105
0.5186193 -0.33664557 0.024926685
0.52089328 -0.33704829 0.024066245
0.52374995 -0.3368215 0.023687657
0.52671003 -0.33693284 0.023602378
0.5291999 -0.33684543 0.023699472
0.53171074 -0.33665046 0.025164526
0.53392673 -0.33639309 0.025404746
0.54232198 -0.3367089 0.025162885
0.5444209 -0.33678785 0.02510242
0.54703563 -0.33647153 0.024431568
0.55020308 -0.33641297 0.024085088
0.55296272 -0.33648425 0.024974683
0.55521131 -0.33662871 0.025048168
0.55763239 -0.33647305 0.024842305
0.56522024 -0.33577809 0.024123628
0.56799126 -0.33599246 0.024442723
0.570494 -0.33650708 0.024365792
0.57308334 -0.33641386 0.024626866
0.57549465 -0.33587143 0.024517043
0.57766175 -0.33593571 0.024168968
0.58097118 -0.33612138 0.025073379
0.51646888 -0.3345142 0.023920804
0.51861686 -0.33466762 0.0238581
0.520854 -0.33501807 0.023790579
0.5235796 -0.33461225 0.02371791
0.5298031 -0.33428153 0.023545107
0.53164804 -0.33396405 0.024496872
0.53432316 -0.33407247 0.025086697
0.53688973 -0.33370081 0.025101518
0.53941065 -0.3337957 0.025028892
0.54193157 -0.33389053 0.024956265
0.54466355 -0.33393332 0.024771055
0.54692847 -0.33425546 0.024310026
0.55012733 -0.33420101 0.02396976
0.55273759 -0.33412892 0.024496818
0.55546206 -0.33383909 0.02482303
0.55794638 -0.33388048 0.024297297
0.56040674 -0.33383691 0.024265876
0.56281763 -0.33394653 0.023712635
0.56547618 -0.33393434 0.023837432
0.5679478 -0.33410409 0.02428378
0.57057357 -0.33440757 0.02438768
0.57318008 -0.33419976 0.024316113
0.57564253 -0.33375722 0.024251325
0.57827717 -0.33391172 0.024374878
0.58107704 -0.33407238 0.02449367
0.58345467 -0.33421054 0.02416735
0.53214133 -0.33218074 0.023502924
0.53425455 -0.33175638 0.023678718
0.53670907 -0.332008 0.024375757
0.53923702 -0.33210307 0.02430292
0.54178089 -0.33177671 0.024234498
0.54454726 -0.33194107 0.024154106
0.54682076 -0.33238837 0.024084449
0.55103391 -0.33254686 0.023963064
0.55273515 -0.33218879 0.023918912
0.5553804 -0.33197173 0.023846347
0.55769575 -0.33171216 0.023783633
0.5604682 -0.33131897 0.02370948
0.56289476 -0.33130476 0.023640791
0.56542265 -0.33139983 0.023567965
0.5680514 -0.33161193 0.023590976
0.57036078 -0.33184075 0.023722911
0.57296979 -0.33218485 0.024345249
0.57570624 -0.33207756 0.024268845
0.57824075 -0.33175239 0.024200663
0.58075935 -0.33184713 0.0241281
0.58271295 -0.33206081 0.024070213
0.53476679 -0.32994956 0.0234541
0.53603542 -0.3299973 0.023417547
0.5705424 -0.3299042 0.023439893
0.57225966 -0.32912463 0.023400128
0.5354448 -0.33838886 0.026339173
0.53711766 -0.33845174 0.026290974
0.53920865 -0.33853042 0.026230738
0.53529125 -0.33691677 0.026360452
0.53718114 -0.33677834 0.026308421
0.53969032 -0.33687273 0.026236134
0.54185236 -0.33728924 0.026169991
0.54384071 -0.33786678 0.026106924
0.57925761 -0.33611339 0.02612257
0.58063596 -0.33644351 0.026079664
0.53557169 -0.335042 0.026374072
0.53724456 -0.33510494 0.026325872
0.53975379 -0.33519933 0.02625359
0.54142666 -0.33526224 0.026205391
0.57928926 -0.33527976 0.026131272
0.66445428 -0.28604603 0.028282881
0.66699278 -0.28630599 0.028207857
0.66978997 -0.28624675 0.02812917
0.67225248 -0.28633937 0.028058222
0.67471522 -0.28643203 0.027987272
0.67716217 -0.28693524 0.027912045
0.67942739 -0.28681487 0.027849145
0.6812821 -0.28667903 0.027798086
0.68841958 -0.28738794 0.028587848
0.69007063 -0.28704044 0.028544992
0.69293278 -0.28714809 0.028462537
0.69598639 -0.28652567 0.028383046
0.69788587 -0.2861056 0.028333977
0.65712869 -0.2841258 0.02851285
0.65928924 -0.28444204 0.028447896
0.66164345 -0.28429568 0.028382774
0.6640178 -0.28454942 0.028312484
0.66672981 -0.2845692 0.028235298
0.66955656 -0.28451857 0.028155668
0.67231482 -0.28469709 0.028075345
0.67477745 -0.28478968 0.0280044
0.67724001 -0.28488234 0.027933452
0.6797027 -0.28497496 0.027862506
0.68237829 -0.28487003 0.027787792
0.6850695 -0.28435454 0.027717352
0.68795806 -0.28405201 0.027638867
0.69023877 -0.28471148 0.02823353
0.69267583 -0.28477237 0.028247049
0.69536889 -0.28460655 0.028422648
0.69835675 -0.28448486 0.028339263
0.70081002 -0.28457716 0.028268589
0.7031554 -0.28443131 0.028203713
0.70492995 -0.28391293 0.02815932
0.47993875 -0.28169754 0.028566426
0.48215514 -0.28141782 0.02850675
0.4965542 -0.28162429 0.028095782
0.498227 -0.2816872 0.028047588
0.50024074 -0.28159541 0.027991503
0.65513879 -0.2824063 0.02858909
0.65688473 -0.28223845 0.028359575
0.65922791 -0.28216809 0.028111989
0.66181511 -0.28207627 0.027736448
0.66432619 -0.28229284 0.027329206
0.66679806 -0.28238583 0.027257988
0.66944677 -0.28218749 0.027435234
0.67203701 -0.2821174 0.027343301
0.67478687 -0.28207716 0.027249245
0.67748141 -0.2822834 0.02720614
0.67993528 -0.28234544 0.027219167
0.68224025 -0.28201699 0.027624432
0.6850481 -0.2819615 0.027745491
0.68787491 -0.28191084 0.027665859
0.69049853 -0.28209177 0.027589329
0.69296116 -0.28218439 0.027518384
0.69555968 -0.28232804 0.027543034
0.69816786 -0.28219929 0.02787069
0.70077753 -0.28186575 0.028050588
0.70319396 -0.28197569 0.028048964
0.70580965 -0.2823076 0.028152827
0.70773858 -0.28183401 0.02810354
0.48038483 -0.27950782 0.028578961
0.48239857 -0.27941599 0.028522871
0.49790397 -0.27916136 0.028085813
0.500597 -0.27914295 0.028009607
0.65126753 -0.27849984 0.027743408
0.65372384 -0.27900496 0.027667889
0.6563127 -0.27970743 0.027677298
0.65917927 -0.27954784 0.027506834
0.66194797 -0.27972704 0.027426206
0.66450858 -0.27965826 0.027354339
0.70332342 -0.27954674 0.0274086
0.70588303 -0.27945483 0.027875731
0.70837146 -0.27953669 0.028112009
0.710742 -0.27911389 0.028049603
0.71345061 -0.27877203 0.027976677
0.47441864 -0.27612436 0.027786722
0.4769372 -0.27621907 0.027714172
0.47963265 -0.27686885 0.027773125
0.48236361 -0.27687711 0.028152889
0.50050843 -0.27674565 0.028039699
0.50332552 -0.27661222 0.027961301
0.50514042 -0.27608198 0.027915895
0.64414364 -0.27596188 0.027974755
0.64651281 -0.27643424 0.027902087
0.64885807 -0.27675831 0.027831806
0.65132999 -0.2768513 0.027760588
0.65380192 -0.27694428 0.027689375
0.6562739 -0.27703726 0.027618162
0.65904266 -0.27721646 0.027537536
0.70857787 -0.27678931 0.027804276
0.71093339 -0.27676582 0.028071182
0.71354711 -0.27694607 0.027994942
0.71605599 -0.27665129 0.027927138
0.7183243 -0.27622464 0.027867675
0.47196376 -0.27434996 0.027876804
0.47448233 -0.2744447 0.027804242
0.47700086 -0.27453944 0.027731679
0.47951952 -0.27463418 0.027659127
0.50311279 -0.27432987 0.027993588
0.50604033 -0.27443999 0.027909249
0.50801313 -0.27395561 0.027858844
0.63868332 -0.27307379 0.028162912
0.64083862 -0.27374446 0.02809404
0.64318395 -0.27406856 0.028023759
0.64606792 -0.27417704 0.027940676
0.64897478 -0.27439708 0.027522173
0.65147847 -0.27413309 0.027287424
0.71350187 -0.27419522 0.02775502
0.71634191 -0.27451167 0.027943647
0.71921438 -0.27434665 0.027864031
0.72158998 -0.27378744 0.027803056
0.72399676 -0.27348885 0.027738195
0.72952008 -0.2730462 0.028587013
0.50560027 -0.27198592 0.027949966
0.50848067 -0.27193433 0.027868826
0.51099628 -0.27136794 0.027803957
0.51315856 -0.27079758 0.027749171
0.5191353 -0.27110353 0.028576529
0.52124488 -0.27048722 0.028523758
0.63643211 -0.27078792 0.028253099
0.63833386 -0.27140975 0.028191976
0.64081037 -0.27153876 0.028009057
0.64330435 -0.27177674 0.027490906
0.64580029 -0.27197993 0.027084248
0.7188471 -0.27167761 0.027838463
0.72178149 -0.2714394 0.027824637
0.72423464 -0.2715317 0.027753962
0.72658002 -0.27138585 0.027689086
0.73018515 -0.27164304 0.028584287
0.73150331 -0.27094451 0.028554907
0.50821316 -0.26943642 0.027655043
0.51097971 -0.26868433 0.027835304
0.51379013 -0.26886618 0.027753459
0.51603121 -0.26867118 0.027692109
0.51919323 -0.26957524 0.028592467
0.52130818 -0.26882005 0.028541142
0.52369022 -0.2683531 0.02847892
0.63371313 -0.26814052 0.02836071
0.63595563 -0.26884395 0.028288983
0.63843799 -0.26904216 0.027882777
0.64093387 -0.26931223 0.027253039
0.64350808 -0.26927888 0.027069217
0.72432774 -0.26907754 0.027779553
0.72678101 -0.26916984 0.027708875
0.72903466 -0.26920286 0.027811289
0.73211849 -0.26906347 0.028559098
0.73376328 -0.26871726 0.028516397
0.51371801 -0.26634979 0.027784456
0.51639467 -0.26645049 0.027707346
0.51863557 -0.26625547 0.027645996
0.52116138 -0.26647463 0.028429363
0.52390289 -0.26641324 0.028495202
0.52601773 -0.26565802 0.028443873
0.63056666 -0.26588979 0.028475896
0.6329152 -0.26633582 0.028404117
0.63576025 -0.26639608 0.027958883
0.63855064 -0.26677242 0.027238719
0.64111853 -0.26656774 0.027168209
0.72687411 -0.26671571 0.027734471
0.72941542 -0.26664749 0.027663145
0.73209387 -0.2663756 0.028290581
0.73442686 -0.26658538 0.028522104
0.51632249 -0.26393408 0.027738342
0.51899898 -0.26403472 0.027661234
0.52140766 -0.26402059 0.02759305
0.52375752 -0.26406661 0.028383395
0.52638692 -0.26392645 0.028453322
0.52861249 -0.26325127 0.028397948
0.62840402 -0.26344213 0.028565412
0.63037533 -0.26368141 0.028506719
0.63285208 -0.26393899 0.027877668
0.63563436 -0.26425236 0.027350461
0.73216438 -0.26370811 0.027891809
0.73476332 -0.26385829 0.028543929
0.73696154 -0.26326087 0.028488427
0.52160347 -0.261619 0.027615117
0.52396762 -0.26112142 0.027553758
0.52627426 -0.26130226 0.028286612
0.52909237 -0.26159975 0.028403319
0.53150606 -0.26029924 0.028349787
0.62860733 -0.26134491 0.028583772
0.63046908 -0.26140022 0.027863337
0.63294923 -0.26159036 0.027457289
0.63551712 -0.26138565 0.027386768
0.7346608 -0.26113558 0.028077932
0.73731542 -0.26109797 0.028503265
0.73927677 -0.26100847 0.028448641
0.5267489 -0.25846091 0.027505444
0.52897429 -0.25887644 0.028215667
0.53150254 -0.25855991 0.028369896
0.53382576 -0.25781256 0.028312579
0.62604451 -0.25801641 0.02769433
0.62818813 -0.25882202 0.027624235
0.63056207 -0.2590149 0.027554654
0.63305908 -0.25869453 0.027487487
0.73716849 -0.25875497 0.028117537
0.73985213 -0.25874507 0.028458353
0.74149686 -0.25839889 0.028415665
0.5291189 -0.25591668 0.027467463
0.53149712 -0.25595102 0.028400067
0.53420275 -0.25587255 0.028324192
0.53642833 -0.25519741 0.028268814
0.62539577 -0.25625956 0.027732946
0.62826395 -0.25627705 0.02765136
0.63067186 -0.2561191 0.027584851
0.73994476 -0.2563003 0.028483851
0.74229079 -0.2562865 0.028417431
0.74407983 -0.25482363 0.028383493
0.52928436 -0.25344509 0.027491197
0.53177577 -0.25346392 0.027563214
0.53409183 -0.25354424 0.028354123
0.53659123 -0.25334844 0.028285457
0.62310755 -0.25355601 0.027828991
0.62518907 -0.25376609 0.027767498
0.62787592 -0.25340515 0.027481018
0.73986751 -0.25344083 0.028185448
0.74249697 -0.25353992 0.028443186
0.74485832 -0.25311869 0.02838102
0.74661648 -0.25247073 0.028338581
0.53188878 -0.25102934 0.027445089
0.53426367 -0.25111461 0.027710209
0.5365864 -0.2510294 0.02831227
0.53859264 -0.25093788 0.028256392
0.62093508 -0.25078145 0.027922556
0.62266022 -0.25095937 0.02787156
0.62499434 -0.25088823 0.027533282
0.62771833 -0.2509535 0.026727602
0.74248731 -0.25062484 0.028376946
0.74504906 -0.25077954 0.02840252
0.74739498 -0.2507658 0.028336108
0.53452253 -0.24824148 0.027402423
0.53691483 -0.24865665 0.02833025
0.53908092 -0.24851453 0.028270416
0.54091096 -0.24701813 0.028235704
0.61856359 -0.24779229 0.028024226
0.62036747 -0.24827445 0.027967501
0.62260157 -0.24818087 0.027605038
0.62515932 -0.24827906 0.026830988
0.74514174 -0.24833478 0.028428014
0.74758565 -0.24842671 0.028357608
0.74921495 -0.24848799 0.028310666
0.53400427 -0.24567653 0.027446635
0.53669077 -0.24569307 0.027814874
0.5392918 -0.24570505 0.028296759
0.54131383 -0.24519674 0.028245229
0.61798656 -0.2455335 0.02806659
0.62021178 -0.24560249 0.027702514
0.62276316 -0.24569389 0.026928719
0.6252538 -0.24578759 0.026856966
0.74767834 -0.24598187 0.028383102
0.74987131 -0.24552029 0.028326184
0.53666419 -0.24305777 0.027501334
0.53940237 -0.24278747 0.02832718
0.5419023 -0.24288148 0.028255161
0.54360056 -0.24211058 0.028215826
0.61545914 -0.24228987 0.028175637
0.61740744 -0.24292161 0.028036114
0.62037176 -0.24308413 0.027137766
0.62285763 -0.24320245 0.026954703
0.74769866 -0.24304762 0.028339326
0.75024587 -0.24281406 0.028346691
0.75190616 -0.24206042 0.028308243
0.53945899 -0.2403093 0.028242916
0.54199708 -0.24038069 0.028281238
0.54387999 -0.24024282 0.028229401
0.61521298 -0.24004352 0.028208464
0.61733991 -0.24043529 0.027843451
0.62016243 -0.24053043 0.027061922
0.62295216 -0.24071097 0.026980685
0.75033867 -0.24036926 0.028372185
0.7522999 -0.24027982 0.02831756
0.53943986 -0.23787339 0.027937992
0.54209197 -0.23787989 0.028307322
0.54449165 -0.23786581 0.028239388
0.61318177 -0.23681858 0.028303206
0.61480457 -0.2377082 0.028246917
0.61724716 -0.23795629 0.027396593
0.62002474 -0.23818144 0.027092852
0.75013793 -0.23783922 0.028406989
0.75287527 -0.23801637 0.028327273
0.54214972 -0.23539972 0.028223051
0.54468668 -0.23547316 0.02826138
0.54635334 -0.23553582 0.028213361
0.61291999 -0.2349859 0.028331708
0.61488616 -0.23526788 0.028050346
0.61732966 -0.23550943 0.027200069
0.61982024 -0.23560312 0.027128316
0.75296801 -0.23557156 0.028352767
0.75478494 -0.23498702 0.028307933
0.54209715 -0.23297763 0.027807746
0.54478151 -0.23297232 0.028287457
0.54705238 -0.23281924 0.028224783
0.61261886 -0.23255105 0.028368264
0.61494738 -0.2328839 0.027520202
0.61742413 -0.23301798 0.027226053
0.7526688 -0.23270395 0.028394245
0.7551282 -0.23238844 0.028328085
0.54496354 -0.23017125 0.028314518
0.54732066 -0.23003225 0.028249232
0.61096716 -0.22969253 0.028448015
0.61259854 -0.23018707 0.028284874
0.61511731 -0.23026983 0.027323131
0.61752665 -0.23013906 0.027089521
0.75266302 -0.22992159 0.028426416
0.75505072 -0.22982062 0.028359827
0.54491317 -0.22730073 0.028348973
0.54750276 -0.22723116 0.028276291
0.54920095 -0.22646026 0.028236955
0.6102342 -0.22717929 0.028497741
0.61236137 -0.22760843 0.028047629
0.61506701 -0.22741002 0.027357453
0.61760706 -0.22732785 0.02650819
0.75531363 -0.22749881 0.028379077
0.54479742 -0.22454916 0.028383911
0.54759753 -0.22473039 0.028302368
0.54926413 -0.22479308 0.02825436
0.61011368 -0.22489622 0.028527424
0.61226088 -0.22494748 0.027927177
0.61508012 -0.22454472 0.027290002
0.61769027 -0.22486268 0.026311865
0.75515878 -0.2251263 0.028410766
0.75712317 -0.22495537 0.028356988
0.54494983 -0.22224568 0.028406084
0.54739219 -0.2221424 0.028337969
0.54935896 -0.22229226 0.028280437
0.60999316 -0.22261314 0.028557107
0.61196214 -0.22210963 0.027906734
0.61491418 -0.22214733 0.027172225
0.75509167 -0.22259389 0.028441804
0.75755113 -0.22227831 0.028375646
0.54470962 -0.21968406 0.02794213
0.54711735 -0.21978708 0.028372863
0.5491268 -0.21961221 0.028317858
0.61023039 -0.2199983 0.028580457
0.61211658 -0.21951154 0.027532049
0.61475319 -0.21973372 0.027154535
0.7550652 -0.21970053 0.02807566
0.7576592 -0.21942604 0.028405389
0.75928855 -0.21948735 0.028358459
0.54456168 -0.21707776 0.027761927
0.54704869 -0.21719664 0.028404614
0.54913199 -0.21727501 0.028344596
0.61055064 -0.21695761 0.027605861
0.61221111 -0.21702008 0.027558025
0.61466932 -0.21718076 0.026930613
0.75513601 -0.21693522 0.028005419
0.75775194 -0.21698126 0.028430888
0.75938123 -0.21704255 0.02838394
0.54432225 -0.21471311 0.027510064
0.54714358 -0.21469586 0.028430693
0.54922682 -0.21477419 0.028370673
0.61064512 -0.21446614 0.02763184
0.61230552 -0.21452862 0.027584009
0.6147573 -0.21469685 0.026845532
0.75515014 -0.21446711 0.028200157
0.75784469 -0.21453644 0.028456381
0.54448807 -0.21218063 0.027756831
0.54723835 -0.21219504 0.028456774
0.54923195 -0.21243699 0.028397417
0.61041385 -0.21179609 0.027669126
0.6124 -0.21203713 0.027609995
0.61485857 -0.21218815 0.026982682
0.75520349 -0.21201031 0.028310275
0.75793731 -0.21209164 0.02848188
0.5446142 -0.20949769 0.027861929
0.54742038 -0.20939396 0.02848383
0.54901558 -0.20934016 0.028439187
0.61049569 -0.20963684 0.027691638
0.61249447 -0.20954567 0.027635971
0.61505198 -0.2095131 0.027163591
0.75539815 -0.20965242 0.028281856
0.75784177 -0.2092317 0.028517492
0.54474324 -0.20662051 0.027955027
0.54736996 -0.20652345 0.028518286
0.54912621 -0.20642252 0.028469613
0.61092854 -0.20699175 0.027709791
0.61267823 -0.20689122 0.027661297
0.61500889 -0.20663859 0.027325215
0.75582212 -0.20690109 0.028315773
0.75806606 -0.20654698 0.028542018
0.54213542 -0.20390567 0.027696451
0.54470533 -0.2039184 0.027873505
0.54755437 -0.20385906 0.028543703
0.54920524 -0.20433854 0.028491348
0.61099148 -0.20533076 0.027727097
0.61229074 -0.20395394 0.027706083
0.61518711 -0.20384976 0.027291609
0.7582463 -0.20394227 0.02856686
0.54232055 -0.20123138 0.027721964
0.54441166 -0.20131004 0.02766172
0.5477494 -0.20146637 0.028565697
0.61197913 -0.20120955 0.027746499
0.61487108 -0.2013344 0.027412882
0.7547372 -0.20140749 0.027695149
0.75873089 -0.20192024 0.028576374
0.54241586 -0.19872123 0.027748141
0.54407275 -0.19920252 0.027695581
0.54800075 -0.19942363 0.028582066
0.61248875 -0.1987337 0.027760521
0.61485344 -0.19890852 0.027509511
0.75450933 -0.19877744 0.027731866
0.53916526 -0.19608524 0.027870702
0.5419758 -0.19626714 0.027788859
0.61258322 -0.19624223 0.027786503
0.61465871 -0.1963203 0.02772671
0.6175285 -0.19646241 0.026893301
0.75247002 -0.19640692 0.027817007
0.75410557 -0.19646843 0.027769893
0.53926045 -0.19357513 0.027896881
0.54166126 -0.19377017 0.027826514
0.61309278 -0.1937664 0.027800521
0.61475319 -0.19382885 0.02775269
0.61721104 -0.19394542 0.027014634
0.75256306 -0.19395278 0.027842598
0.75416756 -0.19483235 0.02778694
0.53935564 -0.191065 0.027923061
0.54135668 -0.19130784 0.027863478
0.61318725 -0.19127493 0.027826509
0.61484766 -0.19133739 0.027778676
0.61740363 -0.19128029 0.027206574
0.6197322 -0.19101673 0.026643299
0.75029075 -0.19124582 0.027938221
0.75215924 -0.19164379 0.02788062
0.53694153 -0.18846048 0.028021527
0.53945088 -0.18855488 0.027949231
0.54110777 -0.18903616 0.027896687
0.61503136 -0.18868294 0.027803997
0.61737293 -0.1884097 0.027649743
0.61991429 -0.18821564 0.026670357
0.75014794 -0.18853705 0.027973438
0.53703672 -0.18595035 0.028047698
0.53943747 -0.18614538 0.027977332
0.61546737 -0.18595481 0.02782301
0.6175586 -0.18561764 0.027767546
0.62002796 -0.18571368 0.027140565
0.74984032 -0.18554118 0.028016631
0.53462261 -0.18334584 0.028146164
0.53713197 -0.18344022 0.028073877
0.53906244 -0.18407144 0.028011838
0.61596125 -0.1838942 0.027832717
0.61765313 -0.18312617 0.02779353
0.62013966 -0.18321958 0.027610736
0.62261099 -0.18331002 0.026872596
0.74724197 -0.18310285 0.028118415
0.74969524 -0.18319511 0.028047737
0.53161567 -0.1805993 0.028263088
0.53429961 -0.18081997 0.028184392
0.53664833 -0.18146692 0.028110305
0.61823934 -0.18081954 0.027803427
0.62023824 -0.18072839 0.027747758
0.62272882 -0.18082207 0.027676009
0.74733496 -0.1806487 0.028144006
0.7493794 -0.18072559 0.028085107
0.5291245 -0.17810507 0.027695501
0.53146738 -0.17819971 0.028294904
0.53397655 -0.17829411 0.028222617
0.53561771 -0.17919375 0.028165698
0.61864078 -0.17900495 0.027812928
0.6204325 -0.17834464 0.027769674
0.62282324 -0.17833062 0.027701991
0.62531 -0.17841941 0.02740808
0.74475235 -0.1781611 0.028064013
0.747428 -0.17819457 0.028169598
0.74926025 -0.17846829 0.02811446
0.5261566 -0.17546634 0.027476596
0.52901089 -0.17559174 0.028283454
0.53156251 -0.17568958 0.028321084
0.53343654 -0.17596957 0.028264686
0.62104189 -0.17597651 0.027779616
0.623007 -0.17567617 0.02772731
0.62542403 -0.1755176 0.027660549
0.62792957 -0.17519242 0.027482033
0.74506789 -0.17564814 0.028265873
0.74741495 -0.17583883 0.028197069
0.52121496 -0.1727574 0.027647985
0.52373356 -0.17285216 0.027575424
0.52650952 -0.17297676 0.028162194
0.5291484 -0.17308508 0.028419547
0.53141421 -0.17329001 0.028352899
0.62325829 -0.17311932 0.027749598
0.6255343 -0.17261089 0.027690865
0.62802494 -0.17270456 0.02761911
0.63051552 -0.17279826 0.027547356
0.74243879 -0.17307173 0.02803663
0.74516094 -0.17319399 0.028291468
0.74678087 -0.17366454 0.028240085
0.51613122 -0.17003095 0.027490113
0.51879191 -0.17014322 0.027746817
0.52131051 -0.17023796 0.027674261
0.52417636 -0.17047538 0.02821549
0.52673435 -0.17048055 0.028518014
0.52913511 -0.17067561 0.028447647
0.53088474 -0.17147458 0.028388798
0.62586147 -0.17024697 0.027708773
0.62811935 -0.17021312 0.027645089
0.63060999 -0.1703068 0.02757334
0.73985058 -0.1704827 0.027695213
0.74220872 -0.17055082 0.028405648
0.74435914 -0.1703421 0.028347028
0.51082361 -0.16769205 0.027616324
0.51368552 -0.16734396 0.027923923
0.51636887 -0.167529 0.027845651
0.5188874 -0.16762376 0.027773092
0.52082509 -0.16825731 0.027710816
0.52514082 -0.16832584 0.028588012
0.52670097 -0.16820499 0.028545141
0.52847064 -0.16887006 0.028487265
0.62652194 -0.16848966 0.027710259
0.62821382 -0.16772163 0.027671076
0.6307044 -0.16781533 0.027599322
0.63319498 -0.16790901 0.027527571
0.73960811 -0.16761047 0.028282393
0.74202132 -0.1676393 0.028444458
0.74374247 -0.16740614 0.028398305
0.50084162 -0.16520873 0.027312467
0.50336957 -0.16530383 0.027239641
0.50565213 -0.1655103 0.027172485
0.5080173 -0.16485487 0.028013358
0.51058769 -0.16478848 0.028041227
0.51340872 -0.16497107 0.027959077
0.51618457 -0.16499901 0.027879987
0.51840204 -0.16564311 0.02780965
0.62880009 -0.16541502 0.027680969
0.63079888 -0.16532387 0.027625302
0.63328946 -0.16541755 0.027553551
0.63579583 -0.165096 0.027486131
0.73716277 -0.16524909 0.027859481
0.73961771 -0.16494866 0.028443569
0.74209386 -0.16498888 0.028472889
0.47693422 -0.16258194 0.027354121
0.47973928 -0.16276065 0.027211834
0.4825663 -0.16279382 0.027191864
0.48502436 -0.16244394 0.027429307
0.487396 -0.16233367 0.027627032
0.48998323 -0.16226788 0.027654419
0.49251115 -0.16236298 0.027581593
0.49503905 -0.16245806 0.027508765
0.49756697 -0.16255318 0.027435938
0.5003984 -0.16273639 0.027353488
0.50323665 -0.16277383 0.027383676
0.50575805 -0.16233002 0.028106507
0.50816464 -0.16217428 0.028140059
0.51057434 -0.16237004 0.028069433
0.512968 -0.16298573 0.027994424
0.63104045 -0.16333693 0.027641308
0.63347095 -0.16262692 0.027580511
0.63590604 -0.1621893 0.027516445
0.73456329 -0.162568 0.027713979
0.73644114 -0.16310212 0.027654547
0.73973364 -0.16244246 0.028569158
0.74144429 -0.16322362 0.028511643
0.47471437 -0.15992083 0.028114697
0.47740757 -0.16010655 0.028036138
0.47993553 -0.16020165 0.027963303
0.4825516 -0.15999311 0.027891474
0.48502335 -0.15954891 0.027826449
0.48755121 -0.15964401 0.027753612
0.48996982 -0.15984049 0.027682729
0.49279064 -0.1600931 0.027742704
0.49530172 -0.15996087 0.027863532
0.49782652 -0.16005586 0.027790798
0.500458 -0.16017103 0.027937131
0.50327909 -0.16000262 0.028303675
0.5057416 -0.15956008 0.028238893
0.50813115 -0.15989026 0.028167287
0.50990736 -0.16055781 0.028109193
0.6343267 -0.1597295 0.028590044
0.63599467 -0.15972982 0.027875714
0.63849109 -0.15979151 0.027470671
0.73395503 -0.16037716 0.027756438
0.47435549 -0.15794171 0.028147651
0.47724906 -0.15792997 0.028065678
0.47999942 -0.1585158 0.027980885
0.48168474 -0.15857919 0.027932346
0.48508725 -0.15786304 0.027844021
0.48761514 -0.15795814 0.027771195
0.49530482 -0.15765364 0.028556982
0.49808484 -0.15750593 0.028479796
0.50076813 -0.15769097 0.028401524
0.5030688 -0.15798777 0.028332822
0.50496578 -0.15784886 0.028280586
0.63617444 -0.1574169 0.028564218
0.63857287 -0.1573468 0.027941141
0.64107615 -0.15739372 0.027424905
0.64356673 -0.15748741 0.027353151
0.72916812 -0.15731893 0.027927458
0.73179102 -0.15782878 0.027847156
0.49537489 -0.15580605 0.028576255
0.49663416 -0.15585342 0.028539956
0.636567 -0.15525669 0.028577931
0.63848805 -0.15483183 0.028528307
0.64114529 -0.15497755 0.028117733
0.64357996 -0.1548385 0.027483299
0.64623886 -0.15479049 0.027308358
0.72417212 -0.15477616 0.028098477
0.7264939 -0.15463923 0.028034167
0.72847456 -0.15496291 0.027974248
0.6388911 -0.1529413 0.02853862
0.64131236 -0.15223396 0.028478051
0.64381599 -0.15206927 0.028136037
0.64617717 -0.15195601 0.027542809
0.64876842 -0.15186137 0.027270271
0.65122443 -0.15201069 0.027643519
0.72154188 -0.15219648 0.028059868
0.72412252 -0.15194847 0.02813242
0.72610527 -0.1524068 0.028070876
0.64214694 -0.15008096 0.028479129
0.64393198 -0.14942311 0.028436054
0.64631379 -0.14940913 0.028368618
0.64879507 -0.14950247 0.028297134
0.65127629 -0.14959581 0.028225653
0.65375763 -0.14968915 0.028154172
0.71637845 -0.14958307 0.027679045
0.71882421 -0.1495087 0.028167905
0.72156793 -0.14922091 0.028236287
0.72345209 -0.15011412 0.028172553
0.64472234 -0.14769217 0.028433532
0.64637655 -0.1477544 0.028385878
0.64899832 -0.14726119 0.02831715
0.65137041 -0.1471137 0.028251536
0.65385175 -0.14720702 0.028180055
0.65634865 -0.14688669 0.028112888
0.65875667 -0.14672871 0.028046379
0.71107417 -0.14705385 0.02772525
0.71378857 -0.14683454 0.028234364
0.7161029 -0.14684738 0.028418673
0.71865141 -0.14664422 0.028348688
0.72054607 -0.14726372 0.028287798
0.651995 -0.14520389 0.028255781
0.65404528 -0.14483221 0.028201882
0.6564585 -0.14399084 0.028143086
0.65893972 -0.14408419 0.028071605
0.661421 -0.14417751 0.028000124
0.66431588 -0.14428641 0.027916724
0.6672107 -0.14439531 0.02783332
0.6954754 -0.14430937 0.027603954
0.6981675 -0.14412664 0.027867477
0.70091933 -0.14416939 0.027879847
0.70328432 -0.14436151 0.027810525
0.70584756 -0.14476748 0.027733117
0.70830387 -0.1452726 0.027657608
0.7116099 -0.14446057 0.028573625
0.71381968 -0.14399549 0.02851627
0.71617573 -0.14418691 0.028447211
0.71817684 -0.14470761 0.028384438
0.66417962 -0.14241704 0.027942099
0.66700119 -0.14197707 0.027867084
0.66978604 -0.14200653 0.027787723
0.67214012 -0.14233181 0.027717182
0.67453396 -0.14239225 0.027648561
0.67729431 -0.14162827 0.027954191
0.67961967 -0.14166184 0.028179619
0.6823855 -0.14170092 0.028161317
0.68523997 -0.14194471 0.027950183
0.68788677 -0.14186315 0.028276199
0.69028568 -0.14170575 0.028209938
0.69277322 -0.14138661 0.028143018
0.69524515 -0.1414796 0.0280718
0.69812918 -0.14158808 0.027988717
0.700728 -0.14196099 0.027910685
0.71225572 -0.14188084 0.028584972
0.71347147 -0.14233774 0.028545216
0.66819459 -0.14028953 0.027852625
0.6694352 -0.1403362 0.027816892
0.67800409 -0.13918015 0.0285875
0.67965204 -0.13924214 0.028540023
0.68242079 -0.13942133 0.028459398
0.68536431 -0.1391131 0.028379416
0.68783683 -0.13902475 0.028310267
0.69039506 -0.13882083 0.028240018
0.69285136 -0.13932595 0.028164506
0.69532329 -0.13941893 0.028093293
0.69762737 -0.13958815 0.028025966
0.6994276 -0.13998604 0.027970314
0.67956227 -0.13725771 0.028565401
0.68218654 -0.13768661 0.028485993
0.68508607 -0.13738295 0.028407209
0.68716168 -0.1370483 0.028352171
0.66465902 -0.29440209 0.031182328
0.66638994 -0.29443496 0.030882716
0.6690641 -0.29463887 0.030554369
0.66499627 -0.29265332 0.031192884
0.66666555 -0.29240072 0.030926092
0.66952258 -0.29232287 0.030991288
0.67234629 -0.29171032 0.03099517
0.67437518 -0.29178664 0.030936718
0.68047714 -0.2916097 0.030765593
0.68224055 -0.2915405 0.030716354
0.68536168 -0.29138693 0.030629555
0.68779641 -0.29147851 0.030559411
0.69023108 -0.2915701 0.030489275
0.69265795 -0.29186463 0.030417018
0.65141737 -0.2888785 0.030621141
0.6572516 -0.28867313 0.02945751
0.65895993 -0.28915614 0.030003745
0.66282248 -0.28930753 0.030292571
0.66464776 -0.2895802 0.030237645
0.66690332 -0.28993353 0.030002834
0.66940373 -0.28999498 0.030014545
0.67204356 -0.29000136 0.030253811
0.67470157 -0.29009876 0.030023353
0.6774419 -0.28993481 0.029803824
0.67993033 -0.28994423 0.029513946
0.68254131 -0.28979442 0.029573509
0.68495762 -0.28980559 0.029749686
0.68785006 -0.28984335 0.029807093
0.6904791 -0.28984043 0.029751768
0.69290072 -0.28989869 0.029765753
0.69539571 -0.28991297 0.029976983
0.69786108 -0.28951102 0.029796202
0.70068228 -0.28941008 0.029467199
0.70304626 -0.28913149 0.030553859
0.70585966 -0.2893278 0.03107205
0.70870447 -0.28902984 0.030994751
0.64583778 -0.28641284 0.030307621
0.64896625 -0.2868869 0.029713154
0.65129167 -0.28676775 0.030363152
0.65377951 -0.28641051 0.030332401
0.65646392 -0.28687602 0.029834006
0.65899253 -0.28732693 0.029605485
0.66155684 -0.28752834 0.029848726
0.66440111 -0.28751239 0.029482359
0.66712284 -0.28750843 0.02919079
0.66958004 -0.28749847 0.029121174
0.67203331 -0.28759074 0.029050495
0.67448664 -0.28768304 0.028979821
0.67706585 -0.28805313 0.028902372
0.6802265 -0.28748932 0.028819174
0.68269533 -0.28717259 0.028752761
0.68520319 -0.28739196 0.028779119
0.68733054 -0.28767306 0.028948955
0.69061345 -0.28790462 0.029520104
0.69305736 -0.28799656 0.029449692
0.69551677 -0.28768101 0.02938354
0.69797617 -0.2873655 0.029317383
0.70055282 -0.28750548 0.029342705
0.70330948 -0.28740951 0.029749149
0.7059046 -0.28743762 0.030342165
0.70846933 -0.28731635 0.030566376
0.71097744 -0.28695282 0.030842986
0.71345264 -0.28657642 0.030888237
0.47248858 -0.28411976 0.030750901
0.47475275 -0.2841951 0.030285615
0.47708139 -0.2845507 0.030342771
0.47950593 -0.28423691 0.030216947
0.64588952 -0.28471634 0.030492403
0.64859247 -0.28486574 0.029747015
0.65123725 -0.28447685 0.029676437
0.65418231 -0.28469005 0.029772317
0.65646327 -0.28478146 0.029524641
0.65901119 -0.28546247 0.029444506
0.66146445 -0.28555477 0.029373834
0.68521053 -0.2856288 0.02869915
0.68767935 -0.28531206 0.028632736
0.69885266 -0.28576627 0.029310912
0.70048189 -0.28582755 0.029263964
0.70352095 -0.28559211 0.029180437
0.70614022 -0.28452241 0.029209375
0.7085011 -0.28468719 0.029633148
0.71095538 -0.28476694 0.030146198
0.71358758 -0.28446975 0.030375065
0.71610683 -0.28472871 0.030734133
0.71843106 -0.28445554 0.030771369
0.72106099 -0.28342065 0.030708641
0.46980038 -0.28176633 0.030654173
0.47202423 -0.28207475 0.030402821
0.4746961 -0.28216347 0.029522723
0.47724915 -0.28200543 0.028730154
0.47937122 -0.28251141 0.029373551
0.48157367 -0.28235152 0.029512987
0.49621978 -0.28123289 0.029110253
0.497839 -0.28254598 0.029049203
0.50033361 -0.28277898 0.028975734
0.50258744 -0.28202894 0.028920406
0.50917476 -0.28134137 0.029741853
