# .PCD v0.7 - Point Cloud Data file format
VERSION 0.7
FIELDS x y z
SIZE 4 4 4
TYPE F F F
COUNT 1 1 1
WIDTH 1439
HEIGHT 1
VIEWPOINT 0 0 0 1 0 0 0
POINTS 1439
DATA ascii
-0.91858959 0.0026022745 0.024616029
0.83387995 0.15858178 0.010971731
0.79012489 0.070434391 0.012565954
-0.44929028 0.82751185 0.029658381
0.93850756 0.24543525 0.031626813
-0.33641481 0.7144385 0.012825307
0.53781939 0.66287124 0.04878664
-0.077301025 0.97560871 0.011737336
-0.35187149 0.59190476 0.021156022
0.12214708 0.21251251 0.033383302
0.30786705 0.86997813 0.033712529
0.4441309 0.24251333 0.048078228
-0.85481787 0.51688081 0.0038237919
0.49592066 0.55249119 0.00013703022
-0.10044813 0.3599371 0.035680704
-0.38332796 0.50881004 0.023613591
0.27895689 0.8465026 0.012926991
-0.57065821 0.066218935 0.011853826
-0.19001818 0.81900197 0.043471038
-0.91469097 0.075125121 0.0041768299
0.77535486 0.47404611 0.049896359
-0.79208136 0.49303904 0.013430046
-0.14996624 0.083267078 0.013232781
0.16129303 0.60403377 0.045044828
0.96767187 0.18488267 0.013133166
-0.29149818 0.46544382 0.040677737
-0.68518734 0.36171657 0.034752477
0.059599876 0.48152649 0.038784377
0.82595682 0.39624909 0.030494407
-0.88714933 0.15992194 0.039788526
0.65432739 0.49746883 0.027320337
0.53179741 0.54487568 0.017705863
-0.42085981 0.5356735 0.02191684
0.58648157 0.49740806 0.0025192176
-0.89546967 0.28507784 0.039171375
0.071794987 0.37941611 0.013500134
-0.84813976 0.3139534 0.038330793
0.88254595 0.029803202 0.012449993
-0.81344891 0.4485687 0.047595073
-0.28799582 0.33371267 0.014922048
0.58105278 0.0075464072 0.047814228
0.10156393 0.66454059 0.029984141
0.71766806 0.41457084 0.0095100105
-0.42545176 0.71248901 0.040215634
-0.8318758 0.48846221 0.022238033
-0.60205126 0.1882056 0.041257922
-0.11930704 0.40191376 0.020888882
0.89531469 0.11979873 0.02405791
-0.12884474 0.90120399 0.01261883
0.61819696 0.1245828 0.030042684
0.22174883 0.19890842 0.030506298
-0.54283333 0.66841471 0.013906037
-0.46763134 0.65577966 0.043671943
0.29738903 0.12053461 0.033036798
-0.086479187 0.55887932 0.027045432
-0.65156317 0.59105355 0.038831007
0.31063795 0.25408357 0.0090712626
0.11493778 0.5186283 0.022518674
0.8209362 0.014771577 0.017957617
-0.74541044 0.32100442 0.025882494
0.52874899 0.20003445 0.036081843
-0.70225811 0.67353612 0.025875989
0.093366146 0.255052 0.012970805
0.49476194 0.65738654 0.019283127
-0.91158915 0.025103746 0.047332175
0.97884369 0.16582131 0.036289327
0.23785496 0.37390247 0.049654715
0.017304897 0.37719354 0.025759131
-0.80026007 0.51012969 0.02705257
0.97171116 0.13616346 0.0011300986
-0.95477772 0.26854908 0.012913768
0.0013270378 0.8400442 0.010217807
-0.058410645 0.05488601 0.023026358
-0.41632318 0.13033955 0.010849427
0.50213861 0.77179092 0.013902649
-0.13490152 0.18081379 0.0044240584
-0.92949486 0.091884337 0.023671571
-0.00094747543 0.49718392 0.042534072
-0.45394564 0.17430443 0.035069473
-0.41733313 0.23010637 0.013896597
0.72708607 0.56876957 0.0090581346
-0.79893827 0.075373128 0.0010603815
0.46176052 0.83353853 0.0038093757
0.041550636 0.013523313 0.010977059
0.2378211 0.45943862 0.0056002317
0.96409369 0.23346333 0.014724324
-0.43119574 0.0099544348 0.027180344
0.36259174 0.12677464 0.002039551
-0.53960609 0.65350783 0.011820621
-0.31685305 0.90811384 0.02448117
0.28544044 0.15457179 0.015903691
-0.20397663 0.61028576 0.022170028
-0.48736191 0.2531046 0.019156169
-0.47134972 0.36764142 0.01983292
0.33882284 0.7158314 0.043483406
-0.96843338 0.09543892 0.037439805
0.58572531 0.075690471 0.037991446
-0.76084614 0.17997107 0.04479304
-0.99084234 0.042122513 0.03360372
-0.90452385 0.020460673 0.031476051
0.46982145 0.054671824 0.039540134
0.17741537 0.25296828 0.02070974
0.21958542 0.46181363 0.035202675
0.53792095 0.64562935 0.0060452903
0.71609879 0.19399139 0.044087023
-0.74374199 0.60294324 0.013230515
0.023497105 0.82029349 0.017899828
0.088320732 0.28156301 0.031766534
-0.55021763 0.65599799 0.047364704
-0.34606409 0.49252069 0.049763806
0.28344822 0.7230112 0.0028604444
0.065406322 0.30033556 0.015712745
0.20087147 0.28548884 0.039381094
-0.84839582 0.35202652 0.027674865
0.95915556 0.12311795 0.041571118
-0.13865328 0.07440462 0.036670081
0.82227135 0.26396084 0.027696084
-0.58926582 0.49474066 0.041829471
-0.010673523 0.65669602 0.031109784
0.018443108 0.37312886 0.0073576518
-0.81876898 0.41289344 0.045054242
-0.23686886 0.83159584 0.010103243
-0.43983364 0.36545748 0.024674688
0.084975719 0.65956885 0.0079247383
0.86620903 0.018937867 0.029686321
0.24268961 0.28674036 0.033442833
-0.75401592 0.53721917 0.0066340901
0.4618187 0.61923957 0.037251536
-0.87065315 0.10514938 0.020088205
0.25772619 0.65381211 0.038747825
0.94243383 0.045094948 0.024706436
-0.34670973 0.60991651 0.017504182
0.56771183 0.39506561 0.037850797
-0.094717026 0.096732169 0.020948958
0.20392561 0.26230648 0.022843949
0.17973804 0.26572779 0.037622798
-0.91102123 0.0023581649 0.028516013
0.95514488 0.087429754 0.013423425
-0.13344288 0.41756687 0.024111565
-0.72700167 0.11647651 0.007945139
0.82840443 0.036456224 0.014687953
0.81622314 0.49779049 0.047200449
-0.69813824 0.61588782 0.021195376
0.4861908 0.30787399 0.026053827
-0.47918463 0.0025521412 0.039450668
-0.63510895 0.1909613 0.0029570137
-0.12023497 0.15923309 0.0032429495
-0.11229181 0.20494685 0.018004559
0.79945564 0.59900504 0.039071314
0.6043334 0.15120853 0.047552995
-0.67921495 0.11551613 0.0008072583
0.1300416 0.61386925 0.043888342
0.79523468 0.26128253 0.036899488
0.87653065 0.48123965 0.0045153853
0.45890522 0.87746108 0.0046607712
0.40856743 0.39455822 0.017021965
0.96820688 0.15745313 0.025041798
-0.61619186 0.31259778 0.035354365
0.11718941 0.42985567 0.035211198
0.29769754 0.907888 0.0447005
0.18305969 0.61746413 0.0025700955
0.71570873 0.41827643 0.033526421
-0.45106411 0.4585146 0.0050736577
-0.749547 0.56430894 0.0050626025
-0.27445745 0.68496299 0.0044422126
-0.8218689 0.20574041 0.026056435
-0.21204424 0.067557722 0.0075280704
0.64399624 0.64412773 0.02737313
0.70139647 0.69487536 0.049015034
-0.17328548 0.8757928 0.046565354
-0.70705128 0.53366625 0.02796923
-0.071496487 0.6345889 0.0079146093
0.54960251 0.33044636 0.033601947
0.45810699 0.79365808 0.02622661
0.14020824 0.47573358 0.011842434
5.1167216 0.075633645 0.029900083
6.7525392 0.12024751 0.03335657
6.9274249 0.26356754 0.025454843
5.529088 0.8238759 0.024199463
5.3569841 0.66424978 0.018661745
5.0154462 0.12164149 0.0063946843
5.8252592 0.56477916 0.038205542
5.9164658 0.12253943 0.0079826508
6.0843 0.77105278 0.0026255066
5.2052932 0.31921619 0.026649494
5.7383504 0.35405222 0.034715377
6.0920401 0.72580063 0.043845132
5.2345686 0.15542172 0.029080549
6.5497441 0.2519415 0.025775993
6.1547565 0.33787358 0.019142663
6.3473034 0.29416224 0.0038810614
5.3104444 0.61180848 0.03256128
5.7598886 0.51851332 0.038709741
5.2445717 0.58679229 0.027400102
5.0149474 0.13461518 0.0036949657
6.7965579 0.54669589 0.022036543
5.7675343 0.60795265 0.0084812734
5.7158332 0.012465274 0.020557225
5.28545 0.63663751 0.035637528
5.1777821 0.16564806 0.0027372122
5.2195439 0.028308541 0.018421637
6.7036848 0.65894151 0.010660028
5.5587077 0.51478815 0.037366997
6.3342161 0.35774368 0.032144491
5.4883161 0.20446904 0.021219114
5.1612167 0.34267905 0.016433308
6.4696393 0.63132912 0.047687151
6.1661229 0.66829306 0.048337214
5.1780934 0.1264185 0.043838337
5.0346384 0.073494151 0.0083899871
5.092742 0.30461156 0.010653907
6.3678508 0.22735077 0.0070247827
6.6852241 0.30294076 0.035708152
5.9613276 0.36130595 0.0046866685
6.2804613 0.82089353 0.016585836
6.8479185 0.22411503 0.04805515
5.40205 0.34548393 0.033809982
6.0348954 0.60855448 0.017695475
5.9810233 0.1979308 0.028792169
5.7901788 0.48863336 0.042876061
5.6171179 0.79104197 0.029089812
5.8091445 0.57057786 0.041314486
5.676703 0.49153697 0.012111364
6.9796824 0.041101899 0.030190185
6.9626546 0.14439245 0.022951052
6.6405668 0.21971293 0.044088934
6.8099771 0.21556462 0.015640369
5.23842 0.2610161 0.046086635
5.6417284 0.37782857 0.0059849578
5.3053527 0.20385996 0.030972863
5.4070749 0.26565093 0.023787562
5.16644 0.32564294 0.002850689
5.2871318 0.69396925 0.028822277
5.3278589 0.076846808 0.039069317
5.6228375 0.28873473 0.015736304
5.6603832 0.80084038 0.03004235
6.6017137 0.28133672 0.048420761
6.9164672 0.21174963 0.018558688
6.7707677 0.038309075 0.038793344
5.3427086 0.12576111 0.0029630689
5.6669278 0.12364934 0.019457849
6.8361678 0.37142533 0.048931591
5.2182794 0.030900043 0.048409075
5.4984875 0.57456952 0.0035984595
5.6381192 0.82269585 0.019186411
5.9176364 0.55800879 0.011758766
5.1849575 0.069002353 0.029370671
6.842133 0.53446025 0.0058321068
6.9240584 0.29999182 0.0088385493
5.4117565 0.56464195 0.017182168
6.095407 0.23004697 0.023739021
6.5921268 0.19318537 0.0075989254
6.7110615 0.21471694 0.010076365
6.1289134 0.9395557 0.043282703
5.8253655 0.36523613 0.037408125
6.7630725 0.070536666 0.015403682
5.582602 0.40727621 0.021358307
5.0939307 0.31973681 0.020912372
6.5354786 0.36677456 0.010152507
5.5489745 0.79325342 0.045063674
5.4397712 0.33345017 0.0066187321
5.614943 0.281921 0.018605245
5.240931 0.12175786 0.033873901
5.6048665 0.033772625 0.031246975
6.0346088 0.95789468 0.049793784
6.1529956 0.26079458 0.0052506351
5.62041 0.74429584 0.027659874
5.0385661 0.25647965 0.015442269
5.3239312 0.13056372 0.0371565
5.2472734 0.39409742 0.031595916
6.1513009 0.35951987 0.001723581
5.7029414 0.57631993 0.016997349
6.7383633 0.67130238 0.026348803
6.4758458 0.51783687 0.028187022
6.4138765 0.043499753 0.026110465
6.1905746 0.25029227 0.039305542
5.7235765 0.74020851 0.029531017
6.1978402 0.69855404 0.026157564
6.4554982 0.065261275 0.035017289
5.42061 0.51920813 0.014948741
6.5049314 0.08805722 0.033134088
5.8038697 0.68579996 0.013312353
5.9095526 0.66611308 0.01308246
5.5330405 0.2792584 0.042520773
6.8032479 0.35005581 0.044909995
5.5455394 0.76201218 0.0076582497
6.5229883 0.19453235 0.046169218
5.3181968 0.11280847 0.031801216
5.025095 0.08660578 0.035466604
6.179162 0.36103958 0.017317895
6.3293724 0.92233765 0.02241876
6.9154978 0.2499171 0.0073879347
5.5524812 0.54145807 0.040830661
5.4812536 0.09979973 0.0066208416
6.3066816 0.18249838 0.036005449
6.063374 0.7873643 0.02877827
6.9043264 0.073533475 0.040189933
6.4499493 0.13057972 0.047900327
5.7388082 0.6209805 0.017351704
6.0948353 0.83696312 0.035700575
6.7653041 0.21702446 0.034542851
5.901515 0.49385244 0.015602112
5.2064099 0.56075573 0.045875706
5.4183521 0.49506214 0.0017124381
5.0131884 0.023635289 0.011299329
6.4047947 0.531838 0.00074684073
5.7837462 0.16636203 0.0093605146
6.8736196 0.33213642 0.016671365
5.8722553 0.82392848 0.048836958
5.2351518 0.44337729 0.040874578
6.3829188 0.82412577 0.0077329725
5.820488 0.53552622 0.032546222
5.3517294 0.26221082 0.028626684
6.8861952 0.4452405 0.0090568159
5.9569263 0.7093721 0.01635739
5.3671708 0.13873476 0.045438405
6.662468 0.16771165 0.003958106
6.3658071 0.067378744 0.038085714
5.7953839 0.86031663 0.029622445
5.9762945 0.032453198 0.0140349
5.0876999 0.3685798 0.0086409738
5.4589734 0.38555241 0.035859428
6.0056129 0.32889768 0.0030781908
6.2800999 0.11219917 0.00112793
5.7636876 0.91250318 0.036629487
6.7630587 0.63812822 0.045588307
5.3415871 0.0379778 0.0067826607
6.4035997 0.27522686 0.010402485
6.3990455 0.81111741 0.0043481034
5.0667329 0.15988094 0.0059712194
6.5014973 0.7121464 0.0009724074
5.4686432 0.3014271 0.023894519
5.8696856 0.53481346 0.04033966
6.9110341 0.12186282 0.046183549
6.0110412 0.23280111 0.043138608
6.1828952 0.48884523 0.042504176
5.8313909 0.66081911 0.045027092
6.7402744 0.62037921 0.01006787
5.7831655 0.91453773 0.0042978749
6.8323202 0.30116892 0.026554067
5.12289 0.20678639 0.017711025
5.0377941 0.13359442 0.035501722
6.3975205 0.24572209 0.012472379
6.5537992 0.088735603 0.027249685
6.3928251 0.89010185 0.038890447
5.8715243 0.55718148 0.013752067
6.3570676 0.063080482 0.047272943
6.5119238 0.60894996 0.04341118
6.7018991 0.39764816 0.040252496
6.7223783 0.34204096 0.017419336
6.5496559 0.45981735 0.038946602
5.2714314 0.42855591 0.013475266
6.3466792 0.16768938 0.026864756
5.7810121 0.52561688 0.032193258
5.8545299 0.81353211 0.030588707
6.3309207 0.91406345 0.0086805876
5.9732428 0.96473479 0.012057203
6.1230841 0.8555097 0.047501214
5.1840444 0.55522484 0.025415108
5.5551686 0.12960035 0.00014698454
6.3031898 0.81960201 0.027668064
5.929606 0.9273808 0.0089507569
5.90306 0.70598173 0.017889578
6.0932374 0.73518896 0.04482419
5.4111729 0.25256655 0.035938136
5.8679075 0.65854627 0.034370031
5.6463361 0.27246922 0.032624051
6.5778494 0.70488733 0.025727281
5.4027224 0.24405117 0.023747599
5.9041204 0.54741579 0.030982876
6.9143639 0.05830285 0.023987178
5.5563426 0.46330997 0.020471532
6.8678508 0.079222269 0.0059376569
5.2464094 0.22299457 0.042857934
5.2458172 0.10695712 0.0084820427
5.2589002 0.4016937 0.041700438
5.1571817 0.11158298 0.0062651797
5.2977304 0.040935308 0.049449213
6.1924701 0.84166205 0.014663721
6.5432992 0.1395303 0.042161193
5.072597 0.17866728 0.049360968
6.3300195 0.32325414 0.025209654
5.5869975 0.35177475 0.033182509
5.1902113 0.46225667 0.00014429228
6.9206729 0.033551365 0.0082882624
6.6329126 0.079597652 0.038203128
6.6578507 0.60783947 0.048569471
6.9687304 0.040641516 0.0014445006
5.6886358 0.033338599 0.044329427
6.0016117 0.38131571 0.0026393621
5.4628267 0.2928597 0.026521286
6.3754702 0.73483348 0.043643266
6.6691489 0.48147851 0.012956059
6.246922 0.60247469 0.002349243
5.2020278 0.27284175 0.006647008
6.9456391 0.14742824 0.011787493
5.3456635 0.21774754 0.0021407306
6.0484371 0.24758776 0.010330772
5.6318097 0.18296875 0.012084899
5.4985032 0.37978986 0.031150708
5.552639 0.46899483 0.04851108
6.708581 0.42128035 0.038153194
6.5226722 0.14821558 0.020548573
5.8627629 0.41040826 0.0016348835
5.9752636 0.65748864 0.024270054
6.1059909 0.06644012 0.046936132
5.513845 0.20973432 0.011333546
5.3560085 0.29421946 0.02372748
6.9302115 0.20481865 0.033567153
6.4289241 0.55836368 0.0055162748
6.3954463 0.67137349 0.031736042
5.9023747 0.37243676 0.011587428
5.2797289 0.61763602 0.02028008
6.1145072 0.66123819 0.040996507
5.5969205 0.44647041 0.023881
6.6476421 0.33757156 0.027221825
5.8995848 0.63076663 0.039222106
6.0105991 0.86766833 0.0084513146
5.9494157 0.30768418 0.036353953
5.4046702 0.79555756 0.017259445
6.3779755 0.27331167 0.0038071559
6.3321571 0.53811598 0.022518372
5.6426864 0.56867152 0.01703636
6.9787121 0.011944185 0.00031717867
6.5871558 0.43729803 0.02471007
5.6700463 0.47922421 0.046862043
5.1730227 0.23265652 0.02856059
6.4417491 0.4904021 0.021946443
5.524662 0.1354911 0.037350375
6.0535722 0.43209571 0.036857277
5.5269823 0.72401237 0.0016178659
5.4975319 0.73103297 0.03014322
6.6738019 0.074652568 0.010586526
5.578465 0.69111997 0.013496364
6.0742841 0.24251266 0.040507611
6.1365228 0.19995679 0.015890328
5.871172 0.69907099 0.036580641
6.7920771 0.60583448 0.013912097
6.2552462 0.4341788 0.021612175
5.1908908 0.37181097 0.043248031
6.027936 0.16147114 0.034335934
5.1618271 0.41805929 0.02661193
6.4949398 0.71413463 0.031663448
5.3070025 0.1571148 0.019770568
5.7125225 0.59416032 0.031929798
5.3084207 0.3734037 0.042022131
6.7423391 0.23505996 0.027269399
5.9138622 0.75308394 0.026893705
6.8335891 0.33137175 0.049346365
5.4509358 0.15954995 0.030981328
5.1705728 0.28994995 0.039058037
6.3704753 0.81697375 0.02738365
5.3828011 0.6632275 0.018476538
5.8502359 0.017836301 0.029373061
6.751493 0.3055073 0.010390401
6.6737275 0.53077632 0.036238626
5.2869864 0.20420724 0.0037797764
5.7642922 0.57906079 0.041574448
6.5473948 0.1495451 0.021569083
5.1609559 0.10543056 0.031114053
5.6585479 0.069395542 0.0070666382
5.567153 0.57748091 0.0010447031
6.3843031 0.68281096 0.043191466
6.7838006 0.29304543 0.044093452
6.34411 0.56295413 0.017247031
5.1395164 0.1863942 0.0031598061
5.3065424 0.70074052 0.017722111
6.7163606 0.087001629 0.047514584
6.1610475 0.80404574 0.0064493222
5.8958492 0.48892149 0.016138501
5.1116576 0.36189786 0.019830149
5.8364077 0.85417432 0.0018602001
5.2319274 0.31455526 0.038840584
5.7931566 0.47560745 0.012434745
6.8270974 0.038494006 0.042413257
6.0462728 0.85774308 0.01070592
6.7591033 0.24320939 0.0093348594
5.7079287 0.92211348 0.015569476
6.8066111 0.22826794 0.006303479
6.8887391 0.1098359 0.030883232
5.4052496 0.57503319 0.02029006
5.5267153 0.29274637 0.013582004
5.6236119 0.89889491 0.038142715
5.0787401 0.18358162 0.012448726
5.7423363 0.82672584 0.015873102
6.3658934 0.54366815 0.0088062445
5.6231389 0.34821609 0.027486777
6.8010592 0.31254098 0.025694475
5.6639466 0.58264643 0.045003787
6.7591968 0.54939258 0.0069837933
5.2477651 0.25851634 0.042748548
6.7881999 0.20751856 0.0093646925
6.9476542 0.10193694 0.007876927
6.1104321 0.077641115 0.031476714
5.0603333 0.029310303 0.024257516
6.1414685 0.93203694 0.0034663584
6.4933543 0.0099598235 0.022263046
5.4225335 0.21887416 0.048369695
5.6453662 0.78177959 0.02930088
5.3228998 0.39018697 0.021505931
6.3509846 0.78842306 0.041123349
5.8412771 0.55246258 0.0079832803
5.6301861 0.50985861 0.023945929
6.9496388 0.094262056 0.027851874
5.592792 0.27569863 0.032135867
6.3867431 0.57208514 0.029211158
5.3777647 0.090009086 0.029783675
5.3249607 0.11755593 0.043188274
5.9362593 0.71612519 0.034994431
6.0182724 0.1758782 0.011505632
6.4597387 0.687271 0.0036050989
6.6659083 0.16925755 0.031582899
6.1634965 0.85547209 0.0090210307
6.5761156 0.54350311 0.024062213
6.9825058 0.017185394 0.039155167
5.1250029 0.0023076332 0.020172998
5.3695002 0.76577353 0.025921952
5.3391371 0.31045154 0.033888802
5.8349729 0.79704475 0.019768022
6.5209537 0.67314696 0.028563401
6.1562772 0.19676904 0.01725873
5.9887075 0.43226138 0.028602559
6.8064456 0.48784515 0.02195958
5.5571451 0.62464142 0.0052067204
6.3512383 0.1173887 0.0098206969
6.2490592 0.19058695 0.010059025
5.392076 0.67681926 0.009388065
6.2736435 0.099770859 0.030070862
6.3162951 0.20757015 0.020477112
5.1653972 0.018599633 0.0099076889
6.1438494 0.078019723 0.019868527
5.6026368 0.17987648 0.041482974
5.3830366 0.7435897 0.032734312
5.1152353 0.40736645 0.017568465
5.7488713 0.27548432 0.023837313
6.8767376 0.23000295 0.033676717
6.8855772 0.034962345 0.026297834
5.1531553 0.10146004 0.031484343
5.0044322 0.092546329 0.042424507
6.3756676 0.16003877 0.044112768
5.2851338 0.65212649 0.048054751
6.1925697 0.036969021 0.0078555597
5.7638836 0.69459474 0.0050980891
6.1625719 0.82007271 0.048803367
5.9647512 0.051555324 0.013033612
6.1529264 0.46294898 0.036943983
5.8521013 0.085560106 0.040707488
6.4317756 0.80486041 0.00024606896
5.2310867 0.19152209 0.049448531
6.0850077 0.11590807 0.0080829002
5.514492 0.11474826 0.0047125728
5.6758175 0.5141986 0.0065962807
6.5576916 0.65201151 0.042336583
6.9665599 0.17493212 0.033893056
6.4595675 0.82612026 0.036472425
5.3879533 0.5179286 0.0098953862
6.0007758 0.053217746 0.014220962
5.6901112 0.92934954 0.0088372193
6.7296033 0.36341169 0.023815021
5.4355474 0.77084517 0.029631477
6.97334 0.050119672 0.03619428
5.4868312 0.39849457 0.013371954
6.5786576 0.70724535 0.0026474732
5.6318569 0.34590083 0.036755152
5.7616634 0.82836664 0.033263449
6.7169495 0.41446605 0.016009683
5.3744526 0.058518317 0.01867057
6.6197505 0.29008117 0.017543947
5.605998 0.61503637 0.044114154
5.3376274 0.71746707 0.040805701
6.1903067 0.4003925 0.0017313535
5.4491696 0.79477823 0.024945864
5.3067856 0.45306119 0.018304791
5.5270381 0.13365242 0.036906227
6.2725 0.33928519 0.029553542
5.5079217 0.24638146 0.0092803463
5.3862305 0.32472572 0.013030626
5.7595277 0.79984754 0.031511866
5.0595884 0.14060138 0.014970141
6.5174994 0.41008309 0.012853977
6.2182689 0.13431661 0.033246279
5.6763887 0.49193347 0.030859616
6.567677 0.1396427 0.01229027
5.4498248 0.7284022 0.019874824
5.2893929 0.21814966 0.037506334
6.545949 0.34609249 0.0016572268
6.6074462 0.66433704 0.022222888
5.4746604 0.53857815 0.013424279
6.8377032 0.42623788 0.034098618
5.4261775 0.66360122 0.0080609275
6.6756315 0.48377231 0.014942686
5.5594044 0.48183241 0.040938176
5.5643282 0.8246752 0.049419343
5.2690601 0.45160913 0.043033671
6.3054571 0.13848479 0.0085363034
6.4351835 0.19824415 0.029190689
6.3751884 0.44544193 0.021006513
5.4999247 0.001314437 0.0026543443
6.429143 0.13794822 0.041678134
6.7688413 0.38579828 0.032192033
5.856647 0.30781668 0.015001747
5.8828678 0.6789397 0.041838627
6.2966723 0.64313525 0.03764854
6.4048471 0.83123845 0.020736277
5.7344298 0.52271092 0.028008064
6.5579205 0.76799858 0.039017446
6.3832417 0.31570223 0.013044775
6.5966234 0.16262212 0.013120668
6.9575934 0.095646515 0.020756995
6.5257406 0.12186513 0.00092389795
5.8185644 0.1138567 0.016475353
5.0543342 0.12587744 0.0006576383
5.9094381 0.47532052 0.034330368
6.9515543 0.17089845 0.029783815
5.630507 0.45996678 0.0068928031
5.2356896 0.39007905 0.0031636641
6.3130512 0.28363812 0.020253625
5.4700389 0.34982032 0.030385578
6.1813126 0.56985974 0.046983793
5.2845755 0.40522444 0.0041468954
6.2060061 0.21951976 0.0099358102
5.6212349 0.15614963 0.029293224
5.0896673 0.39313459 0.0031573125
6.1756315 0.47649094 0.030947417
6.1481872 0.42809317 0.0056972126
5.3127918 0.68424708 0.035942998
6.104629 0.22999051 0.00087546837
6.8988872 0.34244812 0.021501131
5.1954908 0.35291964 0.0004743333
5.423583 0.67171633 0.029473206
6.352005 0.063940361 0.040689781
5.8374038 0.63554305 0.049125809
5.7626476 0.22640896 0.046619914
6.4244089 0.46055079 0.020820636
6.2275348 0.36990583 0.042464253
6.906455 0.16426055 0.039558835
5.0190907 0.089713179 0.0011218253
6.9486828 0.29686737 0.040198002
5.2918549 0.016892172 0.019908031
5.0062013 0.0054209311 0.011008909
6.6174622 0.12311689 0.014424535
5.9442024 0.46227819 0.046630256
6.0407562 0.35505059 0.0082837185
6.8165617 0.17943402 0.033715285
5.2231736 0.55747354 0.0027087789
6.891099 0.26033416 0.022156997
5.0560269 0.3237223 0.045223605
6.0310092 0.4054693 0.042162228
5.2860847 0.18236953 0.043358445
5.0025659 0.0089276955 0.045796044
6.4650283 0.51208472 0.0036219303
5.8794785 0.83979064 0.026771907
6.8671513 0.047810748 0.044539198
6.5177145 0.23821597 0.01008112
5.0067992 0.10212822 0.0043450897
6.4825926 0.2850188 0.033028319
6.2578869 0.54563195 0.032073811
6.4373112 0.74326473 0.002357028
5.9197521 0.88931477 0.015379107
5.9007006 0.35430202 0.021614378
5.80374 0.039329655 0.00053605123
5.9808755 0.012645954 0.042833902
6.2695103 0.88383138 0.047633749
6.4322929 0.8914625 0.011555495
6.8936324 0.32929951 0.0054197786
5.8810639 0.52924979 0.021690855
6.3010421 0.73949909 0.049927555
5.1726584 0.51810235 0.041251712
5.4445949 0.75884998 0.035861317
6.4087071 0.70262927 0.003664409
5.0711966 0.20126206 0.0056698946
6.0495248 0.38831818 0.0063023083
5.2878942 0.54053789 0.0021919063
6.8270617 0.023509949 0.001622409
5.4835887 0.44131801 0.038309105
6.4806495 0.06645599 0.014960768
6.7093425 0.20919035 0.0037343986
5.2256947 0.10077816 0.049853601
6.0607157 0.068741255 0.045480605
6.5004902 0.24765795 0.033973854
5.5475836 0.834328 0.011129395
5.6670246 0.56175619 0.030569157
6.7382917 0.075970374 0.01906505
5.6285372 0.54053575 0.02115627
6.8554745 0.14647788 0.046923935
5.4259038 0.075265929 0.00071313581
5.8224173 0.32948241 0.015552193
6.3029022 0.54916459 0.023514915
5.3046699 0.46190286 0.026958331
6.7474723 0.28324962 0.041261546
6.5320101 0.2399424 0.038038943
6.4620242 0.22504312 0.017826568
6.5183892 0.29945007 0.023458328
6.9706163 0.11801501 0.0025679737
6.2509985 0.64191836 0.016710997
5.2531686 0.40036461 0.021307178
5.8581901 0.83165711 0.038047366
6.3671055 0.14226489 0.016859125
5.9525733 0.46229056 0.048994161
6.0591884 0.68109512 0.020313792
5.0956588 0.24808271 0.034482427
6.1331801 0.69653267 0.047169954
5.2212782 0.27335829 0.014678692
5.6478467 0.51472199 0.039200537
6.2399478 0.084754467 0.022357907
6.4811702 0.49366227 0.0024599023
6.8521638 0.027856067 0.044467289
6.0622711 0.85271573 0.0021144627
5.3371863 0.094205968 0.02525503
6.7376261 0.63227731 0.009369595
6.7640805 0.36917183 0.03843201
6.9641328 0.25715694 0.023571676
5.0048075 0.070712321 0.045357745
5.6243973 0.87518197 0.022855273
6.4514384 0.19451882 0.027220523
6.3414063 0.77626544 0.0053774323
6.7202048 0.59658188 0.0080391364
5.4102507 0.52889341 0.00075782719
6.7144461 0.55070651 0.0070484215
5.9374614 0.89736003 0.0038692493
5.8267689 0.41113305 0.032481857
6.9143782 0.25320712 0.030925188
5.6623144 0.73115957 0.017025806
6.5889664 0.17919655 0.014242043
6.6649508 0.33661541 0.025141871
6.1412663 0.12553416 0.016436286
6.2710819 0.82021201 0.0094324676
6.9125876 0.19085631 0.042177785
6.4328885 0.11153128 0.03153136
6.7845578 0.17719515 0.026487362
6.0267849 0.63498527 0.047359578
5.2552276 0.5026868 0.028630432
6.6030669 0.2734544 0.017469879
5.2915812 0.59249604 0.028556615
6.9686165 0.19717051 0.0010911718
5.8741207 0.28911749 0.0074314624
6.489265 0.78245282 3.7387992e-05
5.6662126 0.62562191 0.023376236
5.4672346 0.37689009 0.02956247
5.2295184 0.23458566 0.043851115
5.6906896 0.34997788 0.025611777
5.6148286 0.016323984 0.013276456
5.9660687 0.2856912 0.030416837
5.7492175 0.86595261 0.02239066
6.5886722 0.63704801 0.012053205
6.9358716 0.064980358 0.026624989
5.1322217 0.45198321 0.021483449
5.8979282 0.81894839 0.0046677184
6.6432409 0.44449881 0.026935626
6.0826068 0.96514988 0.045335587
6.1534872 0.8756265 0.013736862
6.682651 0.548778 0.0146213
6.5844769 0.15291162 0.02891409
5.5212789 0.85629541 0.023641041
6.0820231 0.33218974 0.013044192
6.9316611 0.25910151 0.022265416
6.2114592 0.23611955 0.017740998
6.1924996 0.75636387 0.0089034094
5.7873697 0.74995095 0.037930433
5.4289579 0.2918151 0.036353424
5.901823 0.81650287 0.030659754
5.232749 0.51159966 0.018208992
6.6769643 0.029774765 0.027631575
6.8375359 0.48712662 0.026397381
5.0060449 0.02090973 0.043063022
6.1511078 0.7220422 0.028719675
6.1468458 0.79419768 0.040798802
5.4825234 0.2610243 0.029337788
5.8243532 0.88653779 0.017712867
6.6395707 0.026710533 0.035486512
5.1576934 0.040783852 0.02650984
5.0694118 0.14325067 0.016394624
5.9895539 0.99935138 0.018417323
5.8841891 0.18452069 0.012994771
6.5025349 0.7305128 0.022517631
6.4332643 0.6894924 0.0090391068
6.6122479 0.1031056 0.049184192
6.1717086 0.83796799 0.014436329
5.0095744 0.10337937 0.0094632404
5.7690859 0.39477631 0.011200551
6.5328507 0.66823864 0.01498385
5.4543562 0.6593712 0.034549996
5.2162538 0.092007533 0.034520291
6.4030199 0.056824517 0.043808825
6.5359335 0.42549643 0.036056641
5.6970186 0.76920617 0.024307927
6.8179359 0.39391187 0.030828103
6.1101451 0.37592161 0.023358166
5.7661457 0.64024639 0.01080153
5.5733075 0.2650297 0.03108862
6.9605885 0.17715761 0.020572867
5.829812 0.50431722 0.0099140154
5.4137273 0.57853705 0.017321061
6.3892989 0.26237768 0.020425577
5.5940623 0.10551031 0.045624945
6.0340633 0.39617458 0.035982184
5.8604097 0.84973913 0.020216975
5.2199473 0.1899423 0.039128121
5.5951996 0.034480006 0.022053404
6.8105202 0.56293768 0.036705695
5.5054793 0.094340533 0.018571503
6.8377709 0.30339208 0.044160672
5.8768067 0.68845582 0.029867817
6.6121407 0.412965 0.044110265
6.9279618 0.084570125 0.049882792
5.3268051 0.48267967 0.019703023
6.2419353 0.54793835 0.012610068
6.2856002 0.089365825 0.027788114
5.629509 0.082618318 0.029673493
5.2832355 0.20966686 0.027729446
5.0158663 0.023807116 0.033156518
5.3602519 0.29139924 0.010938562
5.7707496 0.80047458 0.045625575
5.4636121 0.51654166 0.021737846
6.8418603 0.43726599 0.033084203
6.4414272 0.82630235 0.015721282
5.9593315 0.75057226 0.043957017
6.2135096 0.96311498 0.048619505
5.3141065 0.0022296621 0.0030669167
5.0272675 0.10700041 0.01810078
6.9263 0.24632303 0.024809714
5.9717937 0.2174885 0.043766588
5.9935598 0.66460305 0.034885414
6.4053264 0.64816159 0.015487254
5.5963922 0.58154756 0.0059976866
5.1608195 0.30449104 0.0020416544
5.1326728 0.43711239 0.039601341
5.3723612 0.34932914 0.038893726
5.0998325 0.25043839 0.039046925
5.9102864 0.29356605 0.012114343
6.6142435 0.44908363 0.044801679
6.7171831 0.35302034 0.0056804316
5.0568757 0.22034571 0.038911272
5.510128 0.63777691 0.024362016
6.6890812 0.17035888 0.0061429283
5.521697 0.3515206 0.034136802
5.3347802 0.65697372 0.028046656
6.3702669 0.22169745 0.00048256284
6.9137573 0.23149218 0.029232632
6.5947604 0.77359813 0.043970365
6.6965117 0.5143429 0.022425201
6.2348776 0.94044316 0.047753658
6.5701103 0.076850623 0.030894304
5.472959 0.77954262 0.017472707
6.4070363 0.046371348 0.029226717
6.2142024 0.29714549 0.04924053
5.3358846 0.44744056 0.043235432
5.7314143 0.65961605 0.0051684384
5.6143022 0.50647622 0.033659052
6.2986536 0.18520659 0.031774193
6.8117371 0.047575843 0.017614638
6.0798521 0.86213291 0.015990103
6.0747924 0.75980181 0.020667173
6.7901182 0.26798522 0.016531261
6.631156 0.46516809 0.019069618
5.1942973 0.52424765 0.034279935
5.6403623 0.79609185 0.014203864
5.1020236 0.16818942 0.048442747
6.9516425 0.28290644 0.025890311
6.2890515 0.042346917 0.035593476
5.0245371 0.010343516 0.039666589
5.7723436 0.48514807 0.03291133
5.2496533 0.5979504 0.021008123
6.5133429 0.79704916 0.042868249
5.0735397 0.11383098 0.022853713
5.6193256 0.2410012 0.017107451
5.6723976 0.19239466 0.0097662602
6.5675359 0.0093439976 0.0288768
6.6750083 0.68058145 0.024921631
6.9085717 0.21166365 0.02713339
5.862987 0.71960056 0.029482439
6.234766 0.29015249 0.0043939822
6.2587872 0.18385614 0.049621679
6.5051599 0.42765433 0.046059825
6.4468441 0.11750102 0.011181138
6.4908752 0.12942067 0.024212327
6.8514566 0.4464716 0.034393925
6.8644719 0.42136583 0.034961365
6.2613363 0.7663818 0.031083083
6.656352 0.20182998 0.0064181327
6.3481722 0.42459115 0.04274071
6.1485348 0.42688712 0.0076654516
6.137291 0.067997068 0.017182462
6.3892341 0.11586182 0.041958913
5.6944823 0.038353994 0.048526064
6.6841917 0.30036533 0.005953534
6.5526595 0.10465524 0.048521258
6.940248 0.011788627 0.040433101
6.9489808 0.16435385 0.030131806
5.5305004 0.44695976 0.043507688
6.9738584 0.0077018593 0.016154226
6.3035922 0.1441 0.037738007
5.2920451 0.25174576 0.041170366
5.1888709 0.32407257 0.047459416
6.5074124 0.5798732 0.049473412
6.3212094 0.014587106 0.020066064
6.2495875 0.8154639 0.026344825
5.9649444 0.35648578 0.028075948
6.0348158 0.57017654 0.0041362401
5.1342106 0.20316656 0.029447332
6.1717005 0.36435059 0.031142611
5.010272 0.026948456 0.038704515
5.8846917 0.15939346 0.0065270318
5.0537467 0.15397623 0.034231834
5.0225968 0.13335566 0.017878752
6.2380867 0.73443913 0.018648919
5.1910915 0.0003341613 0.010754665
6.733068 0.14649042 0.028589915
5.7284884 0.22987704 0.007116037
6.4386888 0.77728415 0.027416106
5.5200219 0.31688988 0.045908261
5.3206596 0.13250238 0.0053332048
5.9891367 0.75462604 0.013356395
5.662745 0.14326802 0.037160289
6.7307181 0.34057894 0.018703807
6.8875389 0.38473752 0.006513007
6.817399 0.32982826 0.0065414249
5.0729589 0.31381696 0.017310319
6.5944662 0.53300452 0.029252788
6.3309021 0.53927916 0.022500638
5.812767 0.067830071 0.040561561
6.0139203 0.18946317 0.049589779
5.2379532 0.05439325 0.037323307
6.7769117 0.068667382 0.044932507
5.8196659 0.80533814 0.019876793
6.8736291 0.43113762 0.01162958
6.2600098 0.31506351 0.040256932
6.2283964 0.95568424 0.032103673
6.7437325 0.13956036 0.015245748
5.8408346 0.57086587 0.043819401
6.6539135 0.37527591 0.047271959
5.3546696 0.25359634 0.0067460365
6.9533749 0.082867973 0.010946145
5.3347211 0.36160022 0.016399318
5.5524549 0.3910439 0.007337389
6.6291738 0.59406841 0.0016391091
6.8029637 0.13207477 0.017953398
5.2649174 0.548962 0.017034922
6.7481027 0.49372259 0.027473595
6.9810081 0.051091149 0.0063854582
6.4023228 0.21311851 0.031186616
6.5320683 0.011353871 0.047785331
6.6909041 0.56810927 0.011514802
6.8679681 0.15132333 0.035731427
6.7260041 0.49667624 0.0075954995
6.9957314 0.049592633 0.045810822
6.5646877 0.48277426 0.0068904026
6.2502732 0.42383099 0.047375668
5.1254468 0.45226178 0.034576934
5.7846742 0.71523911 0.047746994
6.5588574 0.33883232 0.009386478
5.2607646 0.020343147 0.010056955
5.904315 0.78313172 0.049348202
5.7274628 0.73334575 0.014583526
5.5071197 0.057114862 0.00069543667
5.0629511 0.18012796 0.027560722
5.2685871 0.68112093 0.0068089687
6.384037 0.77636957 0.028697103
6.6376972 0.018169062 0.025328794
6.7733011 0.479206 0.011949794
6.6316829 0.47732249 0.032379501
6.8667564 0.049560379 0.033889879
6.8331914 0.29791084 0.023226956
5.4843636 0.1785486 0.011336884
6.1549935 0.58551037 0.014618981
6.3975368 0.11824643 0.040410634
6.841167 0.31434068 0.040350955
6.2888479 0.16418631 0.032393344
6.0054979 0.70921773 0.033572711
6.7392192 0.63204634 0.021362659
5.4710202 0.10413585 0.0021486473
6.6032238 0.39451903 0.0071172891
6.6678982 0.050407775 0.034053914
6.3559475 0.58665735 0.044473328
6.5353403 0.40499184 0.024106953
5.9320807 0.34431225 0.030550295
5.5419002 0.67729461 0.0096141733
5.9294868 0.31417871 0.018188991
5.3451133 0.3339718 0.0036504143
6.9142275 0.030574698 0.00057537796
6.4215026 0.85965937 0.006710873
6.425797 0.42355126 0.03144338
6.1878753 0.65416414 0.034829848
5.612052 0.30275482 0.016218482
6.4257908 0.19695771 0.040192809
6.1362114 0.39552894 0.0074482681
5.8062644 0.38166624 0.045545582
6.7045379 0.13188666 0.011293715
5.2150679 0.39065629 0.033389773
5.9755526 0.74642015 0.037162554
5.7592931 0.28149638 0.034561846
5.1979718 0.52344787 0.0079671573
5.1583452 0.32675073 0.04126836
6.4736056 0.013082024 0.0076924139
6.6281157 0.24440549 0.018576201
5.7768698 0.093073256 0.038538702
6.3174038 0.46264189 0.0079905521
5.0908856 0.030217035 0.017282711
6.3861628 0.019365506 0.048808519
6.2087331 0.041519336 0.036140684
5.2978163 0.05370054 0.00064186839
5.1244326 0.11720297 0.044460721
6.2918053 0.036978528 0.024714524
5.4678326 0.4498288 0.025457198
5.0084629 0.04522156 0.04116207
5.4490361 0.80883116 0.045936093
6.7216334 0.51162463 0.020329561
6.368155 0.39031574 0.023956651
6.3180881 0.30947351 0.02500635
5.9165459 0.89770788 0.027129075
6.0777559 0.21786243 0.030900205
5.2232213 0.14323233 0.043030608
5.7787385 0.38588101 0.044963665
5.9321837 0.38841301 0.021529224
5.2956085 0.38101164 0.038945761
6.2948041 0.053293038 0.037406094
5.0659819 0.12343534 0.024358487
5.4154062 0.64509934 0.045348521
6.0476155 0.58968008 0.011669911
6.1776776 0.35599661 0.0067124306
5.7811456 0.83521825 0.017638633
6.617312 0.28559691 0.029010361
5.8841486 0.7541787 0.04879478
6.7400017 0.43709245 0.018260242
5.6584759 0.046573378 0.045099165
5.2676878 0.18556201 0.04788775
5.3445072 0.31277648 0.015164693
6.2063375 0.94170982 0.0049205502
6.9440651 0.32639906 0.034438033
5.9438519 0.51651162 0.0025256602
5.414432 0.47618166 0.045324113
6.6536217 0.20852652 0.013475266
6.7858534 0.50972325 0.0014398328
6.1029325 0.27078661 0.033932336
6.0726919 0.15040639 0.036409982
5.7035942 0.77197033 3.4829322e-05
6.4446754 0.19159134 0.020742979
5.0175695 0.019910112 0.018863989
5.7904315 0.88630462 0.018354513
5.0813498 0.37120226 0.044220902
6.80687 0.063195065 0.023592224
5.0447488 0.18550757 0.037368692
5.0182076 0.1381982 0.02858091
6.5059843 0.69330907 0.042192541
5.4402637 0.20325148 0.049732808
5.1166534 0.27595195 0.040147476
5.8299584 0.87698966 0.0008426343
6.6461596 0.37737259 0.0061767758
6.9806643 0.038626779 0.0014984201
6.8810878 0.27859795 0.048477478
6.5251083 0.026599141 0.003826384
5.693871 0.36169106 0.035183765
5.0046878 0.096531436 0.021559987
6.3417082 0.60626131 0.011749831
6.4449329 0.86933923 0.024013536
6.9728389 0.0056810644 0.0034502663
5.1931138 0.046703324 0.047947772
6.4502649 0.48970333 0.022670748
6.9506302 0.12261146 0.032539736
5.6382742 0.56762737 0.011992779
6.4570494 0.62885761 0.013555531
6.8213878 0.15801474 0.032552108
5.384912 0.46868047 0.032457776
6.933475 0.17337918 0.014712373
5.5700097 0.1952723 0.013248229
5.367208 0.73080558 0.014475329
6.0286641 0.47406796 0.018428501
5.9990535 0.021577541 0.045850724
6.2959466 0.66141009 0.015605989
6.7097745 0.27701417 0.046048805
6.321887 0.060228925 0.031400077
5.9391551 0.80900884 0.045252021
6.6063271 0.20761618 0.024973337
5.3416104 0.10752197 0.049144931
6.6509905 0.19707409 0.0099593457
5.97473 0.85638499 0.0071493862
6.4294834 0.47203913 0.030862529
5.8452091 0.14592104 0.031941406
6.8680663 0.11225452 0.016562793
6.4787202 0.83874345 0.036225114
5.5582585 0.82930797 0.039405845
6.6317897 0.12755959 0.02993137
5.3931847 0.04433668 0.042985454
6.8471317 0.31678557 0.00012808945
5.3353386 0.32184991 0.013109103
5.3027387 0.38016957 0.0059420303
5.7221708 0.88325095 0.032077141
5.7867498 0.66153538 0.039462201
5.9467402 0.3512871 0.00076796388
5.1527719 0.1798647 0.048534162
5.0431199 0.071561635 0.044753585
6.0748334 0.77993393 0.0029817491
5.0692997 0.081547812 0.0057707708
5.4114318 0.13195565 0.035578426
6.0347037 0.086348034 0.0071170866
6.5091262 0.17968322 0.033634983
6.2019062 0.46435514 0.029607441
5.1417089 0.18305755 0.013462968
5.3275871 0.6499905 0.031052288
5.0554876 0.2400648 0.047981389
5.0351853 0.080991969 0.010299076
5.5885673 0.61371148 0.049405426
6.6547885 0.48166203 0.010552457
6.8401761 0.24996398 0.018713508
5.486341 0.24635352 0.023033513
5.2442732 0.2459199 0.033471815
6.0887032 0.5804463 0.0071777999
6.4491143 0.38554725 0.025013998
6.1707163 0.068509169 0.018921815
6.1215754 0.71754199 0.0054640439
6.7804122 0.21694343 0.020865802
5.7054849 0.82767767 0.00453293
5.528584 0.39232343 0.036396801
5.6428943 0.12986843 0.0094428733
6.8955474 0.24241059 0.023799233
6.621882 0.072730966 0.042574983
6.1246367 0.31121835 0.021712156
5.1259828 0.061515629 0.043287884
5.4126697 0.1689923 0.046764381
6.9314375 0.33189419 0.032909594
6.8350592 0.31629583 0.00025770473
6.1666541 0.437563 0.043562286
5.0010557 0.013814964 0.015805088
6.4075646 0.33672565 0.022756884
5.7976117 0.79423809 0.0499961
5.2059016 0.43394509 0.0046398188
5.1415606 0.14687847 0.020323027
5.8064942 0.0022600987 0.026653165
6.3424125 0.20531695 0.0370932
6.0769014 0.81077844 0.03269542
6.0654497 0.51601827 0.011441218
5.3432426 0.4814063 0.033629663
5.498848 0.7358138 0.048666187
5.1870537 0.46013474 0.017103242
5.2480369 0.60571617 0.0076543367
5.1681385 0.29056242 0.043352984
6.1916313 0.96158695 0.0076709995
6.4072185 0.79476273 0.0077861818
6.2640152 0.60414964 0.01871253
5.9327374 0.31713587 0.0093718562
5.5349607 0.59095681 0.035228208
5.8510976 0.02210716 0.017147386
6.5866327 0.20119138 0.009662318
5.2701511 0.54046386 0.049169805
5.5445466 0.70145059 0.045112725
6.305367 0.74764842 0.021290308
6.1744943 0.86175537 0.020277536
5.276566 0.25660113 0.013786566
6.7375641 0.27094036 0.045105286
5.9701591 0.1725702 0.01099807
5.9057879 0.5953145 0.044374518
5.3795099 0.19772056 0.04549234
6.5579796 0.48037833 0.0079138149
6.4422526 0.78831202 0.047444031
5.4398937 0.43166709 0.036839876
5.348515 0.23995885 0.026097443
5.3740177 0.76312703 0.019856559
6.6579633 0.59812647 0.038440242
5.0068455 0.08943931 0.0085016638
6.7630768 0.071978852 0.017134018
6.0035596 0.64447635 0.047032729
6.7937431 0.53657395 0.0096390117
6.4768705 0.40677029 0.038582534
6.5517898 0.19736058 0.032529481
6.2055545 0.97268927 0.008583094
6.6862025 0.47531456 0.024397712
5.1618714 0.40297335 0.023326319
5.8241935 0.22606015 0.013039915
5.0803866 0.39134964 0.0013246809
5.1944661 0.39402127 0.0068931459
6.0991697 0.55090523 0.039117165
5.3294582 0.24466939 0.033224951
6.7364287 0.010697515 0.0063638911
6.9067144 0.36274359 0.018196298
5.1104665 0.29845986 0.017891981
6.8922315 0.082746319 0.00056366558
6.5573764 0.19523886 0.037501659
6.2803955 0.65675396 0.048983499
5.3378553 0.67597681 0.048795752
6.46732 0.25633091 0.032043703
5.6389484 0.019120665 0.0097254189
6.7585287 0.4507547 0.026215425
5.2055712 0.33752319 0.027006056
5.5380549 0.16973248 0.020011134
6.1982336 0.46813771 0.002674686
6.6260009 0.72953838 0.011836587
6.1698718 0.86856568 0.023594283
6.2038646 0.28758949 0.0078043304
5.385942 0.7631681 0.0029069758
6.7229495 0.46056509 0.017403882
6.9779649 0.10525184 0.018429069
6.1545467 0.12254449 0.0030152637
5.0464392 0.12301484 0.030801481
6.1305118 0.81305909 0.040370248
5.9585552 0.59514582 0.014251055
6.7361236 0.49347672 0.011026988
5.1494193 0.45947173 0.0050957622
6.3603148 0.71688879 0.019783696
6.1930027 0.63082141 0.018130705
5.7278705 0.47461066 0.00146147
6.1593838 0.97183001 0.026669135
5.5867128 0.61020434 0.03287087
5.3393159 0.66067302 0.0032916293
6.1536217 0.62276441 0.0442953
6.9363446 0.27405334 0.024078179
6.7979512 0.59334344 0.010532253
6.6306729 0.32983252 0.0042211823
6.9918861 0.042903148 0.042646628
6.1619864 0.40066198 0.024792092
5.4788299 0.45464429 0.049453326
5.4097362 0.0060352879 0.048674025
5.5936542 0.77741355 0.032179616
6.7891126 0.46343508 0.026185527
6.201683 0.26852238 0.0076978067
5.3694205 0.46663904 0.046727594
6.4905591 0.18591464 0.045949575
6.1910992 0.04514917 0.017200336
6.6409135 0.7526902 0.034074161
6.0438666 0.31049639 0.0043753763
5.7859001 0.0035614378 0.031010961
6.5899639 0.58597249 0.031384796
5.4340229 0.80891222 0.023925953
6.4726238 0.78791046 0.011649693
6.7522063 0.57509947 0.025357496
6.4032822 0.67477638 0.0054196138
5.3844066 0.065867715 0.0160871
6.4317031 0.57765895 0.018386941
6.6945915 0.2026273 0.017414905
6.5333862 0.65626401 0.032954685
6.1410904 0.75820738 0.033136982
5.2455745 0.48898128 0.019423272
6.0062222 0.69751912 0.018482689
6.0097466 0.29368335 0.013186107
6.5954633 0.33225694 0.0068251537
5.9169941 0.68503165 0.043695129
6.9106836 0.37005365 0.047874212
6.3744831 0.021476366 0.029894661
6.9390655 0.16999348 0.043977652
5.5963168 0.59231269 0.032769818
6.5082235 0.76457852 0.021063246
5.153616 0.39856243 0.0083112633
6.9422302 0.07927262 0.043187894
5.46772 0.17224711 0.0078727603
5.5191984 0.35359493 0.028551385
5.2983484 0.078530796 0.012921577
6.1745915 0.91134232 0.00771093
6.6384859 0.048211735 0.0088690184
6.8811316 0.26833811 0.03359618
5.5434422 0.37419379 0.015966568
6.6692843 0.69307798 0.010355568
6.044558 0.10764991 0.047774136
6.2592273 0.64823383 0.009607072
6.7473149 0.40150669 0.019780327
5.9814453 0.80090922 0.039943594
6.7138243 0.094086044 0.045454372
5.3477349 0.25889033 0.041732274
5.2675838 0.34467313 0.044864394
6.9050746 0.11431361 0.023237683
6.9547982 0.27078286 0.04426704
5.950141 0.20821486 0.040907152
6.0321937 0.92678702 0.046294998
6.4465308 0.72680813 0.029853854
5.1993742 0.33616918 0.010066404
6.3004704 0.44570184 0.00011876004
6.345283 0.88646317 0.0068360744
5.2508063 0.45056143 0.023913477
5.9277234 0.56866431 0.049225178
6.7505174 0.42125639 0.012665844
6.6582541 0.28354752 0.0082131214
5.2472506 0.2864981 0.018636828
5.0257297 0.15796177 0.015000212
5.1473083 0.48166621 0.0056145345
6.5542169 0.2790783 0.033667691
6.7141747 0.10091275 0.0070324405
5.1463804 0.3916764 0.0042601703
-0.80673742 -0.86679411 3.0138922
-0.14869976 -0.60490322 3.0196216
0.58162785 -0.37377977 3.014286
0.53824091 0.065350056 3.0281065
0.0090489388 -0.8520093 3.0185735
0.87588406 0.53722095 3.0285201
0.97362757 -0.26067686 3.0283549
-0.5183897 -0.65613174 3.0062263
0.98750401 -0.030469894 3.0008101
-0.96527338 -0.58798695 3.0025942
0.38547659 0.60527563 3.0210259
0.57096624 0.45657587 3.0028441
0.32295227 -0.96179628 3.0168955
-0.045155048 -0.42355537 3.0178349
-0.67730951 -0.41450644 3.0246656
-0.69721222 0.4613781 3.0280211
0.79010963 -0.56499434 3.029537
0.64025831 0.91661596 3.0083067
-0.83272982 -0.095880032 3.0034425
0.81624937 0.93884706 3.0060034
-0.63602066 -0.67567635 3.017154
-0.9550848 -0.1047101 3.0269525
0.12094831 0.21824265 3.0014946
0.82320166 0.1730876 3.0174782
-0.40919495 -0.50422192 3.0067434
-0.49360037 0.79856634 3.0071671
-0.040784359 -0.41132402 3.0298851
0.15135431 0.22893476 3.0218844
-0.31263828 -0.60379505 3.0217645
-0.80710077 0.21245432 3.0224366
0.11044979 -0.42356634 3.0248191
-0.36672354 0.62134886 3.0128043
-0.387321 0.74229717 3.0060139
0.63028526 -0.43450117 3.0187337
-0.77566338 -0.84369564 3.0190706
-0.59611797 0.66270399 3.0255978
0.04480505 0.62191963 3.0068359
0.12073421 0.77327442 3.0211394
-0.88672113 0.46063614 3.014735
0.0099439621 -0.34646416 3.0184326
-0.15454388 -0.23601437 3.0048265
-0.99470806 -0.6027379 3.0249424
0.060418129 -0.9900589 3.0216243
-0.66621351 -0.35977316 3.0117679
0.78024292 0.86456347 3.0132079
-0.27752256 0.26844549 3.0206101
-0.53672171 0.31325102 3.0019956
0.79275513 0.43398523 3.016901
0.3511672 -0.4527359 3.0136333
-0.69421625 -0.44279146 3.0256348
0.47285509 -0.59733534 3.0289092
-0.78364038 0.40795708 3.0106103
0.58121347 0.46837521 3.0276906
0.68836498 -0.19783831 3.0216448
0.36101532 0.58240461 3.0099516
-0.81002998 0.30488205 3.0293539
0.6816287 -0.23183966 3.0270193
0.7952075 0.56091595 3.0028329
-0.31793928 0.91208315 3.0086789
-0.97044945 0.2178669 3.0063221
0.030575752 0.69072199 3.0181992
0.79558706 -0.092917919 3.009129
0.95786095 0.48829556 3.0219164
0.13007593 -0.82333946 3.0025744
0.94251776 -0.46232414 3.0298376
0.61952305 0.72764587 3.0027764
0.56497431 -0.59072495 3.0069883
0.82367659 0.20448256 3.0193095
-0.4836359 -0.11345625 3.000879
-0.24368382 0.9160943 3.0264323
-0.44652367 0.94667006 3.0244019
0.75330162 -0.2577424 3.029614
0.36108398 0.70011854 3.0070112
0.43724155 0.83019447 3.0082173
0.31556129 -0.22728777 3.0150008
0.77628565 0.39223528 3.0105689
-0.45810795 0.95721006 3.015532
0.075659275 -0.21911335 3.0018857
-0.82965755 -0.70274878 3.0165308
-0.82289124 -0.94643259 3.0131006
-0.59825754 0.60704374 3.01723
0.31709814 -0.63965416 3.027828
-0.8604641 -0.27857018 3.0255046
0.45026922 0.15867186 3.0079508
0.93766356 0.47423315 3.0268114
0.96273422 -0.7494812 3.0020378
-0.28454924 0.79241085 3.0229838
-0.12255764 0.8680706 3.0266688
0.24391651 0.038413048 3.0159254
0.49693489 -0.78447771 3.0294328
-0.3339529 0.61726475 3.0135131
-0.21817017 0.93436289 3.0163655
-0.36012983 0.073898792 3.0171192
0.19802904 0.52416801 3.0076902
-0.41361761 -0.53816795 3.0206532
0.74744797 0.42456627 3.0258462
0.3007493 0.14001703 3.0260451
0.81126022 0.017459393 3.0282385
-0.89734173 0.2613759 3.0217357
0.69130754 0.75831079 3.0074158
-0.66647577 0.42435837 3.0117114
0.58278513 0.2061882 3.0290239
-0.8076086 -0.15394115 3.0289674
-0.47657204 0.044087887 3.018553
0.013136387 -0.36952925 3.0059984
0.97707796 0.37791872 3.0063035
-0.80846167 0.67866802 3.0000381
0.19841003 -0.51007128 3.0027339
0.07335186 0.59258699 3.0162768
-0.013292789 -0.71610498 3.0271976
-0.88441515 0.61741924 3.0185966
0.86172724 -0.79979563 3.0077043
-0.45776749 0.39259624 3.0223482
0.29663658 -0.083975792 3.028033
-0.42479086 -0.070838928 3.0027099
0.31561327 0.90623903 3.0031896
-0.51941586 0.097777843 3.0015101
0.78557158 0.29618788 3.0206554
0.10801888 0.36953974 3.0272939
-0.30815792 0.35624743 3.0073512
0.033976078 -0.52816772 3.0202599
0.80046892 0.33355999 3.0195332
-0.22685003 -0.1242075 3.0215368
0.59188986 0.17242956 3.0133898
-0.54528236 -0.2523613 3.0027823
-0.051983356 0.063251972 3.0103676
0.81923437 -0.45616388 3.0019915
0.36912012 0.32940817 3.0036993
-0.59106493 0.43742704 3.0137298
-0.95866299 0.12926912 3.0238183
-0.042366028 0.1632452 3.0113809
-0.50864983 0.96371412 3.0181291
0.22527122 0.73686409 3.0130863
-0.64821148 -0.67124605 3.0252202
0.3943305 0.78347206 3.0130839
-0.63396692 0.7314887 3.0126758
-0.75602484 -0.44927692 3.000299
-0.78030491 -0.080156803 3.0059922
-0.5083971 -0.67122173 3.0024893
0.13305092 0.37011528 3.0060675
-0.86925411 0.32774925 3.0139239
-0.39972639 -0.1809001 3.0146551
0.40336132 0.044371128 3.0159657
-0.91775799 -0.60383987 3.0102038
-0.066448212 -0.20950937 3.0254028
0.53250074 -0.8434763 3.0042717
-0.80529833 0.40049934 3.0100007
-0.59926128 -0.37980556 3.0141001
-0.063815594 -0.88820219 3.0072248
0.90905666 -0.75515127 3.0166693
0.011198521 0.37559462 3.0197845
-0.72341442 -0.024131298 3.00683
-0.49431324 0.37923002 3.027339
0.47165251 -0.53852797 3.0128486
0.76637268 -0.6049757 3.0067487
-0.15543556 -0.072474957 3.0118217
-0.34575462 -0.87777328 3.008435
-0.98535109 0.52296543 3.0285802
0.29489613 0.45914984 3.0159564
0.90392208 -0.63179302 3.0142937
-0.11693668 -0.6205945 3.01741
-0.8100462 0.65599108 3.0066867
0.31594467 0.16167784 3.0002525
-0.51369333 0.63333082 3.0111938
