# .PCD v0.7 - Point Cloud Data file format
VERSION 0.7
FIELDS x y z
SIZE 4 4 4
TYPE F F F
COUNT 1 1 1
WIDTH 1379
HEIGHT 1
VIEWPOINT 0 0 0 1 0 0 0
POINTS 1379
DATA ascii
0.75318354 -0.16488937 0.033857442
0.75434375 -0.16379534 0.03464089
0.62002295 -0.2688123 0.035494097
0.62123477 -0.26778793 0.034237493
0.62278819 -0.26699156 0.033466861
0.75170183 -0.16283159 0.03331469
0.75295997 -0.1618759 0.034723595
0.61885387 -0.26735854 0.035559833
0.61984169 -0.26602527 0.034399949
0.7503472 -0.16102278 0.033227142
0.75155711 -0.16013142 0.03480247
0.61651582 -0.264451 0.035691313
0.61802363 -0.26398718 0.034591977
0.74866307 -0.15881567 0.032907713
0.74985343 -0.15810642 0.03422888
0.61505592 -0.26323128 0.035758719
0.61647958 -0.26196682 0.034252442
0.74525106 -0.15737592 0.033030514
0.74702525 -0.15695411 0.033495799
0.74844354 -0.15581271 0.034988552
0.61336219 -0.26172078 0.035839297
0.61506796 -0.26021141 0.034331795
0.74430805 -0.15620326 0.033083532
0.74561363 -0.15519869 0.033575166
0.74717188 -0.15408242 0.035063718
0.61215812 -0.25954267 0.035923753
0.61352503 -0.25823084 0.034920417
0.61434627 -0.25656596 0.035440721
0.74265778 -0.15415104 0.033176333
0.74396682 -0.15315074 0.033667751
0.745588 -0.15198642 0.034989115
0.61113822 -0.25776377 0.035993677
0.61220688 -0.25630489 0.035802118
0.74067849 -0.1521703 0.033275798
0.74224377 -0.15119386 0.034010261
0.74409616 -0.14975542 0.035158072
0.60880017 -0.25485623 0.036125153
0.61039197 -0.25409505 0.034602173
0.7392996 -0.15057571 0.033350386
0.7407586 -0.14953408 0.034339309
0.7426126 -0.14841276 0.035320085
0.60739732 -0.25311175 0.036204029
0.60884529 -0.25238678 0.03525088
0.61005735 -0.2511602 0.034182701
0.73817837 -0.14858074 0.033428207
0.73900527 -0.14763306 0.034806274
0.74062705 -0.14673796 0.035412163
0.60599446 -0.25136727 0.036282904
0.6072427 -0.25047666 0.035772551
0.60881859 -0.24904913 0.0345743
0.60969543 -0.24710593 0.034291804
0.7365281 -0.14652851 0.033521011
0.73735195 -0.14560828 0.034940135
0.73866916 -0.14440247 0.03551982
0.60482544 -0.2499135 0.036348641
0.60572666 -0.24869116 0.036244497
0.60741353 -0.24709597 0.034850799
0.73458445 -0.14471224 0.033615511
0.73599279 -0.14379339 0.034852855
0.73756403 -0.14284948 0.035586357
0.60074204 -0.24840997 0.036490235
0.60432839 -0.24667419 0.036441147
0.60597843 -0.24502946 0.035751484
0.60691774 -0.24303025 0.035130382
0.73316991 -0.1429532 0.033695046
0.73474169 -0.14187551 0.03422714
0.73630214 -0.14081043 0.03441808
0.6030637 -0.24414825 0.036535725
0.60422724 -0.24321228 0.036528993
0.60597259 -0.24180827 0.036518876
0.73093593 -0.14127585 0.034007933
0.73278385 -0.140081 0.034275934
0.60133457 -0.24247465 0.03662122
0.60294443 -0.24124539 0.036428336
0.60479188 -0.23974739 0.035499159
0.72755164 -0.1404718 0.0339
0.72932148 -0.13950115 0.034879223
0.73105007 -0.13880008 0.035852879
0.59944236 -0.24083647 0.036710016
0.60140979 -0.23919763 0.036449835
0.60313344 -0.2376723 0.035237916
0.60391116 -0.23630872 0.034705803
0.72606367 -0.13861591 0.034522619
0.72785944 -0.13772553 0.035653133
0.59975404 -0.237278 0.036607731
0.60154176 -0.23560227 0.035602577
0.60277075 -0.2344901 0.034779817
0.72434372 -0.13694452 0.034834158
0.72603142 -0.13613357 0.036047041
0.59997201 -0.23399739 0.03611438
0.60157156 -0.23230815 0.03498932
0.72104973 -0.1360077 0.034343202
0.72291064 -0.13522799 0.035302557
0.59853542 -0.23185542 0.036030754
0.60045195 -0.23015648 0.035479542
0.60154259 -0.22855766 0.034957334
0.71793097 -0.13541609 0.034270845
0.71939039 -0.13448082 0.034790166
0.72106719 -0.13335751 0.035992354
0.59686756 -0.22981733 0.036774397
0.5988698 -0.22828323 0.036033168
0.60045779 -0.22670722 0.035364233
0.60141641 -0.22479659 0.035053186
0.71593326 -0.13396132 0.034457896
0.71753228 -0.13280697 0.035422921
0.71933806 -0.13178159 0.036325607
0.59728646 -0.22626665 0.03704064
0.5991559 -0.22482798 0.036110956
0.60089242 -0.22328685 0.03510379
0.71398556 -0.13227452 0.035021007
0.71585977 -0.1313297 0.036225658
0.5956741 -0.22423582 0.037215319
0.59781981 -0.22285938 0.036765441
0.59933794 -0.2211221 0.035864003
0.71086931 -0.13144019 0.034549579
0.71249783 -0.13069233 0.035241008
0.59651273 -0.22140644 0.03726352
0.59802884 -0.21944238 0.037189662
0.59931707 -0.21822248 0.036603034
0.70694929 -0.13057002 0.03467137
0.70886898 -0.12996475 0.034803916
0.71061778 -0.12887639 0.035164937
0.59641618 -0.21741408 0.037364304
0.59827888 -0.21574496 0.036642969
0.70381325 -0.12987396 0.034768816
0.70567358 -0.12950918 0.035230491
0.70746541 -0.1282147 0.036383916
0.59703046 -0.21389024 0.036577679
0.59834826 -0.21208569 0.035945117
0.70232195 -0.12882039 0.034832973
0.70392549 -0.12778063 0.036005773
0.70526093 -0.12698492 0.036804184
0.59731764 -0.21028244 0.036593184
0.59886503 -0.20864944 0.035627339
0.69640625 -0.12907274 0.034978218
0.69862515 -0.12828977 0.035040751
0.70056713 -0.12733963 0.035684101
0.70211917 -0.1260417 0.036574297
0.70315665 -0.12436818 0.036922507
0.59742427 -0.20683986 0.036507245
0.59880972 -0.20545635 0.035596211
0.69323182 -0.1287294 0.035067953
0.69504207 -0.12815779 0.035335861
0.697079 -0.12668794 0.036287203
0.69907129 -0.12543863 0.036833975
0.70126307 -0.12469428 0.036962949
0.59628028 -0.2050411 0.036338288
0.59784144 -0.20353143 0.035668422
0.59889591 -0.20203945 0.035678133
0.69153315 -0.12758636 0.035514835
0.69340295 -0.12661166 0.036241464
0.69540095 -0.12517482 0.037010275
0.69732791 -0.12426865 0.037074201
0.59634143 -0.20155866 0.036255687
0.59825581 -0.19988233 0.036147907
0.59956151 -0.19756103 0.035771385
0.68822068 -0.12716293 0.035457205
0.68988299 -0.12624276 0.03654911
0.69193578 -0.12508526 0.037067086
0.69359791 -0.12439612 0.037166569
0.59674847 -0.1979263 0.037335403
0.5985496 -0.19622427 0.037138753
0.60000694 -0.19445065 0.035836577
0.60110891 -0.19317794 0.035839699
0.68265045 -0.12758487 0.035367087
0.68426275 -0.12667885 0.035514906
0.68660176 -0.12577513 0.03644453
0.68878049 -0.12475988 0.037280962
0.59902132 -0.19283286 0.036818922
0.6007722 -0.19124514 0.036126822
0.60204089 -0.18953131 0.035905644
0.67918265 -0.12747742 0.03545852
0.68085605 -0.12663871 0.035800215
0.68285948 -0.12556152 0.036724899
0.68452972 -0.1248475 0.037054114
0.59960371 -0.18921576 0.036762021
0.6013568 -0.18757613 0.036062296
0.60257268 -0.18562731 0.035988159
0.60367465 -0.1843546 0.035991296
0.67348355 -0.12819935 0.03558667
0.67516667 -0.12748915 0.035561074
0.67741382 -0.12656564 0.035926536
0.67945874 -0.12501702 0.037013032
0.68143469 -0.12396533 0.037488624
0.60005111 -0.18573906 0.036939446
0.60168213 -0.18422772 0.036490176
0.60339993 -0.18245119 0.036045205
0.60489994 -0.18047206 0.036055528
0.66969943 -0.12853953 0.03567519
0.67196637 -0.12742457 0.035769679
0.67398256 -0.12610123 0.036472302
0.67577928 -0.12461903 0.037117034
0.67779988 -0.12321823 0.0376001
0.60215139 -0.18058965 0.036810987
0.60412443 -0.17901853 0.03621126
0.60560989 -0.17739031 0.036113236
0.60671186 -0.1761176 0.036116362
0.66478819 -0.12940021 0.035779748
0.6664148 -0.12857005 0.03609208
0.66844374 -0.1273472 0.036308479
0.67039347 -0.12583534 0.037010558
0.67241603 -0.12453593 0.037320659
0.60281241 -0.17710006 0.037010722
0.60453743 -0.175772 0.036847673
0.60641098 -0.17404139 0.036575429
0.60820168 -0.17226364 0.036173124
0.60940373 -0.17105529 0.036172103
0.66147465 -0.12928933 0.036117502
0.66303438 -0.12863675 0.036343765
0.66486335 -0.12718123 0.037064034
0.66690558 -0.12570427 0.037706621
0.60722184 -0.17072365 0.036903225
0.60887414 -0.16919047 0.036481716
0.61041737 -0.16714984 0.036242329
0.6121819 -0.16519932 0.036245171
0.61338395 -0.16399099 0.036244147
0.65325177 -0.13211392 0.036008317
0.65552056 -0.13094068 0.035979137
0.6576215 -0.12982176 0.036414724
0.65958524 -0.12844495 0.036870409
0.60785007 -0.16760927 0.03704723
0.60935819 -0.16527069 0.036700599
0.61115158 -0.16362689 0.036810584
0.61290777 -0.16221413 0.036800414
0.61474049 -0.16046081 0.036653683
0.61670238 -0.15867302 0.036540303
0.61839354 -0.15730566 0.036280513
0.6198889 -0.15586138 0.036277793
0.64247417 -0.13769354 0.036146883
0.64364743 -0.13674976 0.036140066
0.64600194 -0.13507642 0.03634337
0.64793307 -0.13364859 0.036406919
0.64981568 -0.13235533 0.036475249
0.65192258 -0.13077453 0.036275465
0.61559874 -0.15707517 0.037258316
0.61740303 -0.15583579 0.037092529
0.61942494 -0.15414506 0.036957335
0.62133962 -0.15243253 0.036870897
0.62281317 -0.15068731 0.036705561
0.62516308 -0.14920473 0.03630669
0.62705183 -0.14758883 0.036298104
0.6281538 -0.14631611 0.036301225
0.63079363 -0.14419261 0.036285918
0.63288128 -0.14292708 0.036263652
0.63484246 -0.14141846 0.036250588
0.63668746 -0.13980204 0.036386073
0.63879436 -0.13847511 0.036488689
0.64076704 -0.13691282 0.036710113
0.64273459 -0.13535376 0.036931649
0.64467162 -0.13380422 0.037005089
0.62431192 -0.14822125 0.036852997
0.62636089 -0.14657304 0.036841109
0.62808955 -0.14509477 0.036666498
0.7241329 -0.2799696 0.029551622
0.72616565 -0.27857682 0.029533876
0.72790396 -0.27742094 0.029517833
0.72996563 -0.27576247 0.029505882
0.73202729 -0.27410406 0.029493932
0.73379451 -0.27268255 0.029483683
0.73569614 -0.27108356 0.029474368
0.73768115 -0.26907125 0.029473104
0.73944831 -0.26764971 0.029462855
0.7409209 -0.2664651 0.029454326
0.71503168 -0.28457579 0.029671244
0.71705872 -0.28323612 0.029652324
0.71907705 -0.28197616 0.029631672
0.72082973 -0.28068745 0.029618535
0.72292882 -0.27905548 0.029438194
0.72503 -0.27742192 0.029257853
0.72679955 -0.27599841 0.029247593
0.72888505 -0.27434948 0.029151432
0.73101419 -0.27272263 0.028886801
0.73278618 -0.27129722 0.02887653
0.73473316 -0.2697154 0.029168874
0.73668015 -0.26797602 0.02912543
0.73850137 -0.26647216 0.029516116
0.74056304 -0.26481375 0.029504148
0.7424919 -0.26314089 0.029495955
0.74399 -0.26147527 0.029498626
0.74568564 -0.25972345 0.029498331
0.70597672 -0.28875691 0.029800121
0.70780355 -0.28761059 0.029781573
0.70974779 -0.28620821 0.029766332
0.71155852 -0.28483254 0.029503686
0.71366847 -0.28321713 0.029239304
0.71578318 -0.28159893 0.028974844
0.71757305 -0.28018707 0.028880399
0.71938133 -0.27878842 0.02870178
0.72145152 -0.27712312 0.028689791
0.72352171 -0.27545786 0.028677784
0.72529608 -0.27403045 0.028667504
0.72738367 -0.27255988 0.028650261
0.72967416 -0.27099553 0.02863013
0.73144859 -0.26956815 0.028619833
0.73298532 -0.26784518 0.028622929
0.73505551 -0.26617989 0.028610939
0.73712569 -0.26451465 0.028598934
0.73890013 -0.26308724 0.028588653
0.74091381 -0.26140451 0.028766142
0.74291199 -0.25972089 0.028985724
0.74465746 -0.25828922 0.029059663
0.74661553 -0.25671297 0.029348543
0.74864262 -0.25512847 0.029535782
0.75012684 -0.25348437 0.029538261
0.75133383 -0.252271 0.029537229
0.70025402 -0.28948179 0.029928807
0.7022146 -0.28875315 0.029896552
0.70422828 -0.28779128 0.029701915
0.70635259 -0.28620732 0.029290464
0.70844972 -0.28458023 0.029089212
0.71002823 -0.28290457 0.028839897
0.71224326 -0.28167903 0.028813364
0.71464396 -0.28016517 0.028789146
0.71641839 -0.27873778 0.028778849
0.71819282 -0.27731043 0.028768567
0.720263 -0.27564514 0.028756578
0.72233319 -0.2739799 0.028744571
0.72410762 -0.27255249 0.028734291
0.73800731 -0.26137137 0.028653719
0.7397818 -0.25994402 0.028643435
0.74178004 -0.25794709 0.028641459
0.74328434 -0.25627458 0.028644148
0.74510652 -0.25484937 0.028732646
0.747136 -0.25333667 0.028951405
0.74902666 -0.25175485 0.029442243
0.75103378 -0.25008833 0.02959867
0.75289452 -0.24830064 0.029595057
0.75449312 -0.24669963 0.029593535
0.75589073 -0.24496934 0.029600365
0.69500482 -0.29079551 0.030030865
0.69649011 -0.28998852 0.030012717
0.69872856 -0.28879464 0.029901402
0.70085323 -0.28722784 0.029413057
0.7026872 -0.28588888 0.028954372
0.70473415 -0.284437 0.02893771
0.70730299 -0.28314954 0.028903618
0.74279159 -0.25460196 0.028697928
0.74385482 -0.25309768 0.028707758
0.74556935 -0.25139391 0.028705845
0.74763954 -0.24972865 0.028693825
0.74941397 -0.2483013 0.028683543
0.75139827 -0.24662818 0.028924095
0.75335962 -0.2449573 0.02922073
0.7552672 -0.2432892 0.029657701
0.75710946 -0.24153022 0.029653843
0.75832808 -0.23985741 0.029663835
0.69152278 -0.29068762 0.03012269
0.69336998 -0.28974321 0.029898509
0.69507146 -0.28850922 0.02941839
0.6971671 -0.28701907 0.029067904
0.69947201 -0.28567606 0.029041938
0.70146966 -0.28467765 0.029015353
0.74494326 -0.24970689 0.02876338
0.74643362 -0.24805602 0.028765894
0.74795181 -0.24636187 0.028768746
0.74982017 -0.2445668 0.028765129
0.75189036 -0.24290152 0.028753124
0.75375593 -0.24146774 0.02889459
0.75555432 -0.23970102 0.029271759
0.75767571 -0.23844294 0.029715391
0.75904095 -0.23676293 0.029721802
0.68580008 -0.29141253 0.030251361
0.68750513 -0.29068094 0.030100631
0.68988538 -0.28976876 0.029853709
0.69169641 -0.28808105 0.029281884
0.69340593 -0.28686416 0.029167997
0.74895644 -0.2425842 0.028836012
0.7504468 -0.24093333 0.028838541
0.75200087 -0.23940501 0.028836386
0.75407106 -0.23773971 0.028824396
0.75622767 -0.23637417 0.029219711
0.75810289 -0.23472254 0.029733509
0.75968581 -0.23267041 0.02980607
0.76060987 -0.23123449 0.029817764
0.68257397 -0.29142195 0.030333742
0.68427849 -0.29057598 0.030310933
0.68638128 -0.28920278 0.029540453
0.68846947 -0.28758967 0.029276541
0.69045258 -0.2867246 0.029247046
0.75164151 -0.23774682 0.028886393
0.75315887 -0.23620166 0.028885605
0.75471497 -0.23430084 0.028892588
0.7566185 -0.23284021 0.028979875
0.75836068 -0.23111115 0.02951451
0.7601192 -0.22956875 0.029871345
0.76131082 -0.22808497 0.029877372
0.67914313 -0.29133755 0.030423675
0.68108237 -0.29038686 0.030286241
0.68288326 -0.28907758 0.02971646
0.68484873 -0.28779775 0.029364133
0.6869272 -0.28688306 0.029333413
0.75435567 -0.2326427 0.028942594
0.7554667 -0.23135948 0.028945759
0.75683761 -0.22967254 0.028952204
0.7588141 -0.22801901 0.029192481
0.76064038 -0.22638927 0.029825104
0.76216304 -0.2247214 0.029938383
0.67536652 -0.29146659 0.030517202
0.67737567 -0.29006451 0.029999973
0.67947143 -0.28860983 0.02957279
0.68143797 -0.28772867 0.029453158
0.68313503 -0.28701267 0.029427322
0.75647831 -0.22801434 0.029002212
0.75777733 -0.22599576 0.029018689
0.75928253 -0.22427778 0.029105857
0.76111746 -0.22275908 0.029679947
0.76294762 -0.22127376 0.030003201
0.6702202 -0.29133996 0.030652087
0.67205691 -0.29096434 0.030503109
0.67388797 -0.28997391 0.030008122
0.6756869 -0.28850105 0.029581409
0.67768455 -0.28750265 0.029554809
0.75815451 -0.22252809 0.029094392
0.7595998 -0.22080684 0.029199876
0.76151317 -0.21934921 0.02968706
0.7628209 -0.21749713 0.030099442
0.6685136 -0.29055813 0.030715052
0.67045701 -0.28935063 0.030027919
0.67219537 -0.28834826 0.029674554
0.75870955 -0.21907958 0.029165104
0.76019233 -0.21732625 0.029170366
0.76188177 -0.21573672 0.029833274
0.76341796 -0.21406759 0.030168617
0.66501981 -0.28975347 0.030574145
0.66683519 -0.28894478 0.030197375
0.66901886 -0.28777981 0.029769907
0.67069173 -0.28728601 0.02973921
0.75964928 -0.21540287 0.029231586
0.7605933 -0.2136403 0.029250862
0.76230049 -0.21211116 0.029845152
0.76400959 -0.21085247 0.030232649
0.66157007 -0.28932923 0.030923093
0.66342968 -0.28854913 0.030427728
0.66527992 -0.28742036 0.029874466
0.75963998 -0.21135359 0.029331543
0.76085991 -0.21011645 0.029512733
0.76264656 -0.20864953 0.03010737
0.76397681 -0.206871 0.030331528
0.65581846 -0.29031977 0.03104597
0.65764529 -0.28917348 0.031027423
0.65981454 -0.28813136 0.03066401
0.66155064 -0.28697199 0.029981036
0.75951463 -0.2083713 0.02940822
0.76106071 -0.20688283 0.029505365
0.76275796 -0.20522386 0.030130411
0.76422966 -0.20388806 0.030398529
0.65510827 -0.28943664 0.031085907
0.65628231 -0.28776324 0.030882642
0.65812683 -0.2861968 0.030087803
0.66006154 -0.28577632 0.030048573
0.7596696 -0.20487955 0.029490244
0.76131546 -0.20318019 0.029552503
0.76335043 -0.2016636 0.030309033
0.76455116 -0.19994488 0.030487377
0.65295458 -0.28699967 0.031201083
0.65446925 -0.28594637 0.030616462
0.65638548 -0.28483897 0.030165777
0.76001143 -0.20104817 0.029575851
0.76208436 -0.19947505 0.030095175
0.76355809 -0.19795603 0.03056179
0.65127528 -0.28520724 0.030924331
0.65322351 -0.2841371 0.030264055
0.75910771 -0.19888128 0.02965232
0.7604472 -0.19764416 0.029748587
0.76211137 -0.19602522 0.030464437
0.76324081 -0.19469635 0.030650184
0.64836979 -0.28467605 0.031375684
0.64975715 -0.28372461 0.03072683
0.65171993 -0.28307486 0.030328697
0.75902683 -0.19590381 0.029727744
0.76074123 -0.19433267 0.030306237
0.76241028 -0.19280186 0.030718111
0.64613754 -0.28289413 0.031376652
0.64778298 -0.28205526 0.030454637
0.75817853 -0.19419275 0.029791571
0.7593013 -0.19239882 0.02996096
0.76080656 -0.19071278 0.03066767
0.76193047 -0.18944784 0.03081299
0.64302278 -0.28194749 0.031579789
0.64441228 -0.28112292 0.031008635
0.64606488 -0.28048402 0.030537298
0.7579025 -0.19011462 0.029899072
0.75925362 -0.18874565 0.030315125
0.76065099 -0.18737422 0.030896835
0.64137965 -0.28046426 0.031658396
0.64292705 -0.27955985 0.030640436
0.75807399 -0.18689328 0.030064998
0.75954598 -0.18542701 0.030973056
0.63948625 -0.27887398 0.031284206
0.6409471 -0.2779153 0.030731615
0.75710702 -0.18466942 0.030053567
0.75849044 -0.18323909 0.030625124
0.75955212 -0.18166476 0.031065555
0.63609457 -0.27807367 0.031709637
0.63772511 -0.27727515 0.031163435
0.75601876 -0.18262395 0.030131767
0.75711429 -0.18112595 0.030448517
0.75843406 -0.17966062 0.031032342
0.63444501 -0.2764186 0.031389777
0.63608831 -0.27544659 0.030916803
0.7555958 -0.17906973 0.030230131
0.75709605 -0.17783271 0.030972652
0.63302678 -0.2747238 0.031763475
0.63439536 -0.27364415 0.031004541
0.75443631 -0.17732495 0.030302785
0.75576353 -0.17599981 0.030801751
0.75705814 -0.17494431 0.031294912
0.62745523 -0.27435046 0.032165498
0.62889898 -0.27343154 0.032151159
0.63132966 -0.27269468 0.031606749
0.63273144 -0.27157497 0.031098101
0.75280142 -0.17498907 0.030402165
0.75414687 -0.17390086 0.030769762
0.75543952 -0.1725294 0.031395823
0.62615585 -0.27321321 0.031726457
0.62768638 -0.27222523 0.03221193
0.62956601 -0.27080175 0.031289198
0.75245124 -0.17196003 0.030585818
0.75384521 -0.17061977 0.031233516
0.62473559 -0.27217487 0.0322887
0.62626606 -0.27045897 0.032291789
0.62785232 -0.26929298 0.031279258
0.75113112 -0.17014325 0.030564304
0.75276107 -0.16869941 0.031141791
0.75391173 -0.16680935 0.031575814
0.62482142 -0.26842123 0.032378957
0.62590718 -0.26732832 0.03137745
0.74952602 -0.16788764 0.030660952
0.7511723 -0.16657345 0.031026386
0.75320154 -0.16592622 0.031615749
0.62305248 -0.26611808 0.032480959
0.6242432 -0.26525915 0.031470995
0.7478621 -0.16581845 0.030754495
0.74946898 -0.16454567 0.03124501
0.75077647 -0.16351371 0.031737246
0.62151003 -0.26458228 0.032447077
0.62281698 -0.26348555 0.031551193
0.74673158 -0.163807 0.030832954
0.74804562 -0.16277573 0.031325039
0.74935609 -0.16174737 0.031817123
0.61916965 -0.26404703 0.032631386
0.61983174 -0.2626597 0.032375664
0.62139076 -0.26171198 0.031631388
0.74530536 -0.16203341 0.03091315
0.74657148 -0.16076967 0.031412184
0.74805284 -0.15960979 0.031903125
0.61828947 -0.26055467 0.032339666
0.61943114 -0.25988072 0.031726643
0.74364144 -0.15996423 0.031006711
0.74477631 -0.15888269 0.03150462
0.74627858 -0.15792036 0.031990163
0.61672676 -0.25870943 0.032491848
0.61776721 -0.25781155 0.031820215
0.74197751 -0.15789509 0.031100284
0.74322474 -0.15696032 0.031841844
0.61542827 -0.25695801 0.03252653
0.61634094 -0.25603795 0.031900398
0.74055129 -0.15612152 0.03118048
0.74180293 -0.15519223 0.031921793
0.61207342 -0.25557637 0.032021049
0.61349404 -0.25492036 0.032000866
0.61467701 -0.25396878 0.03199397
0.73888737 -0.15405233 0.031274039
0.74009591 -0.15330252 0.031976297
0.61084557 -0.25409776 0.033089533
0.61196011 -0.2528201 0.032647721
0.61304212 -0.2516329 0.032093354
0.73722345 -0.15198314 0.0313676
0.73827797 -0.1511928 0.031804811
0.61087781 -0.25097829 0.033165541
0.61188263 -0.24988818 0.032166019
0.73627263 -0.15080076 0.031421054
0.73720449 -0.149113 0.031688944
0.73875457 -0.14783061 0.031430651
0.61004728 -0.2490838 0.033233453
0.61039722 -0.24790673 0.032395799
0.73362887 -0.14781597 0.031562261
0.73543912 -0.14718871 0.032156751
0.60883993 -0.24548383 0.032852687
0.73202187 -0.14620964 0.031768065
0.73358434 -0.14542443 0.032372776
0.60765207 -0.24374552 0.032800846
0.73068261 -0.14463341 0.031966254
0.73225921 -0.14350256 0.032704186
0.72784245 -0.14395143 0.03180559
0.72904003 -0.14271736 0.032405704
0.73078108 -0.14226758 0.032772455
0.60575479 -0.23923959 0.032585151
0.60584241 -0.23769997 0.032906711
0.72568482 -0.14199039 0.032075934
0.72722274 -0.14126207 0.032602437
0.60500753 -0.23615637 0.033226017
0.60598135 -0.23467606 0.032691725
0.72250247 -0.14094487 0.032016367
0.7241227 -0.14022166 0.032409642
0.72569972 -0.13956773 0.03296905
0.60379893 -0.23389515 0.033567354
0.60493433 -0.23288949 0.032762542
0.72098231 -0.13953899 0.03208993
0.72249818 -0.13829906 0.032815445
0.60254198 -0.23160768 0.033855993
0.60367507 -0.23062526 0.03312346
0.71879196 -0.13798505 0.032327235
0.72036517 -0.13691993 0.033045769
0.60239422 -0.2286312 0.033682905
0.60326844 -0.22736558 0.032941215
0.71562016 -0.13723171 0.032284033
0.71698165 -0.13629028 0.032856058
0.71884561 -0.13586977 0.033235617
0.6016165 -0.22693832 0.033994675
0.6024754 -0.22541156 0.03376013
0.71384919 -0.13558072 0.032592412
0.71547258 -0.13498263 0.033177055
0.60193086 -0.2231968 0.033745218
0.6017229 -0.22184302 0.03411743
0.7104792 -0.1348764 0.032473665
0.71222049 -0.13392848 0.033119537
0.71423769 -0.13375866 0.033405598
0.60042363 -0.2214337 0.034160785
0.60138243 -0.21977662 0.033533789
0.60215026 -0.21779868 0.033205442
0.70680308 -0.13393903 0.032590885
0.70888382 -0.13327941 0.032839768
0.71059692 -0.13216597 0.033412959
0.60003048 -0.21774769 0.033561192
0.60155398 -0.21619196 0.033260308
0.70511132 -0.13284722 0.032772291
0.70718729 -0.13173302 0.033545032
0.70915627 -0.13105881 0.033602193
0.59897357 -0.21589366 0.034209255
0.60026824 -0.21412379 0.033844464
0.60142785 -0.2128626 0.033345506
0.70158476 -0.13229504 0.03276499
0.7033602 -0.13132474 0.033343792
0.70517188 -0.13062783 0.033714838
0.59945828 -0.21219081 0.034413122
0.60069668 -0.21070054 0.033846322
0.60153651 -0.20855619 0.033448763
0.6979087 -0.13135765 0.032882195
0.69998151 -0.13076499 0.033272576
0.70178777 -0.12973544 0.033680514
0.59997118 -0.20886245 0.034231797
0.60087067 -0.20705709 0.033802949
0.60188472 -0.20535524 0.033518679
0.69498444 -0.13095134 0.032967079
0.69653475 -0.13023269 0.033308957
0.69853044 -0.129306 0.033774495
0.59992123 -0.20514491 0.034483798
0.60129762 -0.20363857 0.033798374
0.69154608 -0.13030958 0.033070937
0.69305509 -0.12969455 0.03334764
0.69483167 -0.12933023 0.034011558
0.5992012 -0.20302454 0.034645423
0.60017723 -0.20164177 0.034354314
0.60135061 -0.20009434 0.033773109
0.60210574 -0.1983621 0.033685237
0.68727851 -0.12984797 0.033191573
0.68948162 -0.12936305 0.033378039
0.69124085 -0.12851754 0.033980571
0.59954798 -0.1998367 0.034715049
0.60031617 -0.19827221 0.034483738
0.60185653 -0.1964605 0.03383854
0.60334116 -0.1944475 0.033750009
0.68378216 -0.12973969 0.033283755
0.68591481 -0.12892219 0.033549495
0.68789899 -0.12815602 0.034075037
0.60107923 -0.19488011 0.034697838
0.60260725 -0.19284397 0.034391992
0.60420042 -0.19153054 0.033911031
0.60540575 -0.19035263 0.033797972
0.68083853 -0.12951122 0.033364758
0.68227488 -0.12869012 0.033765145
0.68452293 -0.12775688 0.034214191
0.68648565 -0.12699398 0.034282792
0.60212433 -0.19097689 0.034867261
0.60310394 -0.18957925 0.034576423
0.60447103 -0.18811528 0.034002103
0.67679715 -0.12949674 0.033802141
0.678882 -0.12874642 0.033934012
0.680507 -0.12760161 0.034420907
0.60247111 -0.18778905 0.034936886
0.60378909 -0.18639706 0.034573548
0.60517573 -0.18447235 0.034365617
0.606543 -0.1823791 0.033965223
0.67135155 -0.13039228 0.033585999
0.67362183 -0.12954292 0.033933662
0.67554897 -0.12864605 0.034188617
0.6772809 -0.12761101 0.034503289
0.60451347 -0.18284942 0.035006247
0.60579383 -0.18108968 0.03468325
0.60729408 -0.17951888 0.034141514
0.60839891 -0.17772193 0.034032382
0.66606802 -0.13133213 0.033698127
0.66806561 -0.13039002 0.033795275
0.67008722 -0.12942085 0.03442055
0.672019 -0.12854701 0.034614995
0.60552084 -0.17951798 0.035062484
0.60644495 -0.17808208 0.035074178
0.60805851 -0.17593683 0.034685444
0.60968089 -0.17400816 0.034341186
0.61111307 -0.17261779 0.034088586
0.66109294 -0.13241333 0.033798888
0.66255641 -0.1314761 0.033951283
0.66446644 -0.13045101 0.034332622
0.6669215 -0.12984166 0.034513481
0.60775042 -0.17384604 0.03514507
0.60900587 -0.17259675 0.034976915
0.61046976 -0.1710932 0.034688417
0.61202264 -0.16920558 0.034482878
0.61361849 -0.16695133 0.034163971
0.61483043 -0.16573298 0.034162939
0.6532765 -0.13480644 0.033940103
0.65476793 -0.13399622 0.033921883
0.65681672 -0.13287544 0.034230564
0.65913963 -0.13183847 0.034263335
0.66099089 -0.13039351 0.034551706
0.66253239 -0.12977865 0.034827545
0.61137551 -0.16769785 0.035203658
0.61297303 -0.1657066 0.034836538
0.61457032 -0.1642125 0.034651764
0.61637133 -0.16244963 0.03440449
0.61837375 -0.16044866 0.03420236
0.61991048 -0.15872568 0.034205429
0.62138915 -0.15753621 0.034196854
0.64386529 -0.13945606 0.03406658
0.64561075 -0.13829544 0.034050465
0.64735615 -0.13713484 0.034034379
0.64943093 -0.13571012 0.034266487
0.65158761 -0.13448432 0.03435516
0.65355647 -0.13301328 0.034755364
0.65575087 -0.13200168 0.034946449
0.65757769 -0.1308554 0.034927901
0.61403996 -0.16296886 0.035251889
0.61584568 -0.16119312 0.035249382
0.61763209 -0.15959449 0.035243012
0.61922002 -0.1577681 0.034872089
0.62081647 -0.15615597 0.034845904
0.62266159 -0.15433086 0.034743533
0.62468237 -0.15257967 0.034484796
0.62623185 -0.15088862 0.034570102
0.62829924 -0.14922564 0.034558132
0.63036656 -0.14756265 0.034546137
0.63213855 -0.14613718 0.034535866
0.63399041 -0.14458394 0.034593411
0.63609326 -0.14301381 0.0344509
0.6382075 -0.14148337 0.034561787
0.64018327 -0.14013308 0.03471598
0.64233965 -0.13878196 0.034661073
0.64445961 -0.13736445 0.034769975
0.64631009 -0.1363177 0.035081901
0.64846498 -0.13486131 0.035062589
0.65085584 -0.13335368 0.035038505
0.62245452 -0.15232149 0.035298623
0.62366158 -0.15110818 0.035297606
0.62539983 -0.14995229 0.035281561
0.62754351 -0.14803392 0.035273921
0.62918258 -0.146061 0.035280533
0.63086808 -0.14486104 0.035266921
0.63308066 -0.14357981 0.035241827
0.63541377 -0.14189696 0.03522351
0.63718092 -0.14047545 0.035213277
0.72718865 -0.27137122 0.027683867
0.7286734 -0.27017686 0.027675251
0.73075205 -0.2685048 0.027663205
0.71150291 -0.28105623 0.027846996
0.71382022 -0.27968091 0.027821532
0.71589893 -0.27800882 0.027809488
0.71768057 -0.27657557 0.027799157
0.71975929 -0.27490348 0.027787112
0.72183794 -0.27323142 0.027775053
0.72361964 -0.27179813 0.027764739
0.72564 -0.27066174 0.027741004
0.72771865 -0.26898962 0.02772899
0.7297973 -0.26731753 0.027716901
0.73157907 -0.26588431 0.027706571
0.73365772 -0.26421225 0.027694555
0.73573637 -0.26254013 0.027682481
0.73729682 -0.26100552 0.027680296
0.73906106 -0.25937682 0.027675226
0.74086225 -0.25776508 0.027668802
0.7423858 -0.25621358 0.027668001
0.70430851 -0.28325891 0.027976979
0.70650744 -0.2821418 0.02794819
0.70852786 -0.28100544 0.027924469
0.71030957 -0.27957219 0.027914153
0.71238816 -0.27790007 0.02790211
0.71451306 -0.2762647 0.027637769
0.71626437 -0.27480668 0.027795605
0.71832722 -0.27312264 0.027867692
0.737629 -0.25759602 0.027755804
0.73970765 -0.25592393 0.027743775
0.74166721 -0.25421429 0.027735664
0.74297225 -0.25248316 0.027744856
0.74403983 -0.25097269 0.027754713
0.6974712 -0.28550029 0.028096853
0.69892681 -0.28457373 0.028082391
0.70093262 -0.28357124 0.028055727
0.70299673 -0.28203309 0.028040797
0.70507538 -0.280361 0.028028723
0.70685709 -0.27892777 0.028018393
0.74011558 -0.25217414 0.027825624
0.74189728 -0.25074095 0.027815295
0.74367899 -0.24930772 0.027804965
0.74535763 -0.24739879 0.027808985
0.74706197 -0.24560875 0.027809415
0.69362468 -0.28598753 0.028183347
0.6956256 -0.28502965 0.028155748
0.69760591 -0.28312987 0.027969852
0.69929898 -0.28169817 0.027726736
0.70142585 -0.28007883 0.0273786
0.74432558 -0.24585477 0.02787347
0.74640423 -0.24418265 0.027861396
0.74796474 -0.24264809 0.027859211
0.74949026 -0.24072258 0.027867574
0.69016558 -0.28590241 0.028274015
0.69214797 -0.28472438 0.02815219
0.69410384 -0.28303334 0.027843567
0.69593138 -0.28130254 0.027339078
0.74675387 -0.2409686 0.027931597
0.74883252 -0.23929647 0.027919568
0.7507773 -0.23760992 0.027911266
0.75228769 -0.23593053 0.027913949
0.75340337 -0.23464206 0.027917117
0.68489921 -0.28648901 0.028394414
0.68686962 -0.28558531 0.028366242
0.68866926 -0.28429133 0.028268617
0.69068825 -0.28269726 0.027739178
0.7492404 -0.23554671 0.028001478
0.7510221 -0.23411348 0.027991148
0.75280386 -0.23268028 0.027980817
0.75442958 -0.2306882 0.027988236
0.75594819 -0.22868454 0.027998658
0.67938751 -0.28733814 0.028514635
0.68109155 -0.28661916 0.028488705
0.68313646 -0.28531933 0.028384971
0.6852476 -0.28373143 0.027897466
0.68706733 -0.28237373 0.027439585
0.7511701 -0.23059861 0.027962688
0.75321174 -0.2289305 0.028062712
0.75529039 -0.22725843 0.028050639
0.756715 -0.22578655 0.028050387
0.67584765 -0.28749722 0.028601352
0.67785347 -0.28649473 0.028574686
0.67958891 -0.28504694 0.028465815
0.68150383 -0.28337109 0.027745096
0.68360078 -0.28172666 0.027544264
0.75367802 -0.22544864 0.02803643
0.75564003 -0.22404432 0.028120842
0.75731695 -0.22232878 0.028120128
0.6725511 -0.28708044 0.028696045
0.67438644 -0.28598422 0.028676083
0.67617804 -0.28461134 0.028330453
0.67786169 -0.28322542 0.027836265
0.75604796 -0.22029461 0.02820278
0.75780898 -0.2184978 0.028201889
0.75895548 -0.2168152 0.028213955
0.66834885 -0.28668609 0.028813345
0.67063791 -0.28559393 0.028698247
0.67273122 -0.28406772 0.027876129
0.67452204 -0.28264937 0.027754027
0.75645584 -0.21654485 0.02828463
0.7582376 -0.21511163 0.0282743
0.75930506 -0.21360111 0.028284144
0.66538346 -0.28654602 0.028892728
0.66712576 -0.28549033 0.028762924
0.66920757 -0.28394827 0.028024899
0.67117673 -0.28207067 0.027672023
0.75680548 -0.21333076 0.028354833
0.75858718 -0.21189754 0.028344503
0.75929761 -0.21034841 0.028364442
0.66245693 -0.28604883 0.028979909
0.66378742 -0.28491247 0.028700925
0.66544425 -0.28355658 0.028047523
0.66752911 -0.28194588 0.027637713
0.75715512 -0.21011671 0.028425021
0.75857973 -0.20864485 0.02842477
0.66019452 -0.2844283 0.029077785
0.66201812 -0.28305557 0.028264321
0.66405737 -0.28131589 0.027637888
0.75756305 -0.20636694 0.028506961
0.75883824 -0.2046079 0.028517565
0.6564526 -0.28395405 0.029185243
0.65847969 -0.28269696 0.028830716
0.66053885 -0.28113687 0.028149329
0.75589228 -0.2042893 0.028600898
0.75797093 -0.20261717 0.028588824
0.75903845 -0.2011067 0.028598668
0.65327764 -0.28324932 0.029283889
0.65504748 -0.28239238 0.029159583
0.65714759 -0.28098488 0.028421858
0.65884137 -0.27913007 0.027741902
0.75653887 -0.20083635 0.028669342
0.75818664 -0.19938861 0.028662786
0.64986402 -0.28224778 0.029395957
0.65151179 -0.28177679 0.029274395
0.65355873 -0.28034839 0.028535079
0.65561199 -0.27876708 0.027916927
0.65713787 -0.27711755 0.027334766
0.75664979 -0.19732544 0.028752996
0.75787646 -0.19601284 0.028753864
0.6483376 -0.28083611 0.029469812
0.64981687 -0.27989909 0.028899089
0.65184802 -0.27834624 0.028107043
0.65389788 -0.27676708 0.027426358
0.75485677 -0.19539759 0.02834601
0.75693333 -0.19358686 0.028837778
0.7580651 -0.19178773 0.028853085
0.64497954 -0.2798225 0.029580759
0.64665926 -0.27932674 0.029549947
0.64835376 -0.27816725 0.028645635
0.65038997 -0.27659339 0.02793739
0.65245408 -0.27497166 0.027507536
0.75571358 -0.1917465 0.028664162
0.75725251 -0.19029069 0.028910745
0.64375699 -0.2786063 0.029642012
0.64504129 -0.27750403 0.029090444
0.64675671 -0.27589741 0.028488312
0.64888287 -0.27452397 0.027752973
0.65076971 -0.27287704 0.027602263
0.7541939 -0.18973157 0.028145095
0.75598985 -0.18831594 0.02880979
0.75698268 -0.18679282 0.029003806
0.64174908 -0.27691102 0.029735195
0.64324683 -0.27560392 0.028828425
0.6452257 -0.27386546 0.028053422
0.6472891 -0.27222738 0.02770737
0.64882237 -0.27119115 0.027693627
0.75232816 -0.18766834 0.028100768
0.75445497 -0.18630999 0.028680174
0.75606561 -0.18470635 0.029078674
0.63783038 -0.27579734 0.029862942
0.6397543 -0.27524433 0.029493764
0.64175057 -0.27367902 0.028702896
0.64374971 -0.27211773 0.027800716
0.64580613 -0.27079201 0.027780708
0.75281149 -0.18442731 0.028268287
0.75451601 -0.1828316 0.028982589
0.75566161 -0.18150108 0.029167948
0.63654262 -0.27468246 0.029923365
0.63828969 -0.27349573 0.029324144
0.64026177 -0.27194843 0.028338917
0.64226806 -0.27044243 0.027879916
0.75124133 -0.18265305 0.028252101
0.75312591 -0.18111323 0.028825469
0.75476515 -0.17977814 0.029233318
0.6349079 -0.2727713 0.030012287
0.63659328 -0.27143529 0.029251538
0.63854623 -0.26989213 0.028155535
0.64008343 -0.26898915 0.02797164
0.74956375 -0.18056691 0.028346419
0.75143868 -0.17904273 0.02896139
0.75327224 -0.17742413 0.029329548
0.63323718 -0.27069366 0.030106228
0.63491744 -0.26935127 0.02934576
0.63684154 -0.26781887 0.028083453
0.63803905 -0.2668556 0.028076507
0.7498064 -0.17692995 0.028930102
0.75172061 -0.17538401 0.02941951
0.629843 -0.26951355 0.030222202
0.63165402 -0.26894516 0.030007895
0.63365775 -0.26752022 0.029072884
0.63539779 -0.26602352 0.028164631
0.74842572 -0.17510153 0.02884371
0.75028849 -0.17360313 0.029500028
0.75147629 -0.17264763 0.029493127
0.62862051 -0.26829734 0.030283455
0.63030922 -0.26717812 0.029850837
0.63225657 -0.26560134 0.028922576
0.63395405 -0.26422814 0.028245825
0.74707037 -0.17324805 0.028673869
0.74885643 -0.17182229 0.029580561
0.75018632 -0.17055696 0.029577643
0.62692058 -0.26648754 0.030371547
0.62858152 -0.26513225 0.029611919
0.63057667 -0.26351234 0.029017011
0.63226962 -0.26213348 0.028340552
0.74541992 -0.17113945 0.028684681
0.74726522 -0.1696738 0.029424049
0.74867046 -0.16855027 0.029665884
0.62524986 -0.26440987 0.030465502
0.62690562 -0.26304826 0.029706128
0.62886095 -0.26144305 0.028889544
0.63057053 -0.26017392 0.028432306
0.74374235 -0.16905335 0.028779013
0.74565369 -0.16753732 0.029323334
0.74699968 -0.16647261 0.029759824
0.6238178 -0.26262906 0.030546019
0.62546915 -0.26126194 0.029786907
0.6273452 -0.25968844 0.028526839
0.62881273 -0.25875437 0.028512254
0.74230444 -0.16726524 0.028859869
0.74428785 -0.16568692 0.029181508
0.74586457 -0.16445293 0.029838642
0.62238568 -0.26084816 0.030626537
0.62400228 -0.25948888 0.029701373
0.62590146 -0.25789306 0.028608017
0.74101233 -0.1653274 0.028440375
0.74295366 -0.1637982 0.028928641
0.74443251 -0.16267204 0.029919162
0.62040162 -0.25901565 0.030639097
0.62225121 -0.25743267 0.029400755
0.62422824 -0.25592381 0.028699372
0.73937505 -0.16331513 0.02817448
0.74107856 -0.1617191 0.028884897
0.74276179 -0.1605944 0.030013144
0.61868042 -0.25695503 0.030483726
0.62053549 -0.2553561 0.029308215
0.62223333 -0.25394464 0.028799193
0.73761517 -0.16105731 0.028314125
0.73955584 -0.15974969 0.029015269
0.74109101 -0.15851676 0.030107053
0.61724639 -0.25517175 0.030564388
0.61909467 -0.25356436 0.02938924
0.6207602 -0.25241926 0.028874461
0.73627865 -0.15927407 0.028460504
0.73816061 -0.15783781 0.029198147
0.73965895 -0.15673588 0.030187586
0.61557335 -0.25309128 0.030658472
0.61744624 -0.25166738 0.029549619
0.61904645 -0.25059465 0.02896326
0.73481601 -0.15735257 0.028602984
0.73648304 -0.15575166 0.029292464
0.73798817 -0.15465823 0.030281555
0.61410761 -0.25101006 0.031080782
0.61595565 -0.24948619 0.029570021
0.6175155 -0.2481654 0.029062308
0.73305917 -0.1553594 0.028589327
0.73480546 -0.15366553 0.029386796
0.73631746 -0.1525806 0.030375477
0.61283851 -0.24897586 0.031163372
0.6143465 -0.24758375 0.029908217
0.61614138 -0.24590921 0.029153064
0.73144978 -0.15332487 0.028814038
0.73330861 -0.15195714 0.029689571
0.73505795 -0.15057206 0.030457199
0.61140651 -0.24719502 0.031243892
0.61301988 -0.24578071 0.030486912
0.61483264 -0.24412841 0.029230408
0.61554891 -0.2425667 0.029250527
0.72769701 -0.15333879 0.02857626
0.72996604 -0.1515912 0.02906147
0.73184282 -0.15021092 0.029881286
0.73361981 -0.14898273 0.030533165
0.60999382 -0.24523561 0.031328321
0.61138803 -0.2436934 0.030767754
0.61332333 -0.24225639 0.029715415
0.61458635 -0.24136974 0.029304642
0.72625327 -0.15154341 0.02865744
0.72835296 -0.1495735 0.029319236
0.73008382 -0.14825135 0.030308153
0.73154545 -0.14734146 0.03062667
0.60836196 -0.24280083 0.031430069
0.60972834 -0.24161015 0.03092408
0.61175686 -0.24011183 0.029680986
0.61294115 -0.23891512 0.029407237
0.72307199 -0.15065292 0.028760808
0.72456884 -0.14944881 0.02875215
0.72654629 -0.14765815 0.029515285
0.7283572 -0.14625511 0.030623861
0.72951794 -0.14534132 0.030727835
0.60663295 -0.24125886 0.031512316
0.60829329 -0.23982564 0.031004798
0.61012626 -0.23814559 0.029942971
0.6115765 -0.23675098 0.029495478
0.72105181 -0.14863123 0.028862314
0.72284728 -0.14741693 0.029013045
0.72501063 -0.14587188 0.029996313
0.72689807 -0.14451599 0.030815255
0.6056782 -0.24007165 0.031565994
0.60705662 -0.23832637 0.031448599
0.60840899 -0.2363942 0.030970832
0.61039919 -0.23490553 0.029682254
0.61108887 -0.23334177 0.029591909
0.71934509 -0.14724456 0.028940177
0.72133225 -0.1457496 0.029426418
0.72335964 -0.14394207 0.030453032
0.72499049 -0.14295468 0.030902542
0.60721916 -0.23427862 0.031335622
0.60885453 -0.23295076 0.030295502
0.61026961 -0.2318325 0.029650044
0.71643382 -0.14638326 0.029035922
0.71790475 -0.14527205 0.029125717
0.71972299 -0.14368519 0.029893689
0.7216509 -0.14208323 0.030759368
0.72343999 -0.14143202 0.030979736
0.60595757 -0.23216568 0.031753529
0.60740918 -0.23082079 0.030748826
0.60882467 -0.22954521 0.029743373
0.71440953 -0.14467406 0.029129863
0.71635598 -0.14320704 0.029382981
0.71839875 -0.14142041 0.030441985
0.72024125 -0.14023432 0.031091141
0.60485238 -0.23022661 0.031829584
0.6059289 -0.22897948 0.031276815
0.60771811 -0.22724466 0.030078528
0.60867131 -0.22543059 0.02984863
0.71153879 -0.14366814 0.029228121
0.71273631 -0.14270484 0.029221188
0.71470588 -0.14128549 0.029872777
0.71689701 -0.13977006 0.030854631
0.71855545 -0.13900676 0.031164538
0.60392684 -0.22877155 0.031889122
0.60447097 -0.22695404 0.03173802
0.6063602 -0.22546992 0.030490529
0.60806775 -0.22380412 0.029904144
0.70975929 -0.14194575 0.029316109
0.71154737 -0.14076926 0.029549468
0.71368444 -0.13905765 0.030644717
0.71533984 -0.13784596 0.031275474
0.60329264 -0.22463812 0.032007143
0.60465652 -0.22364771 0.031072963
0.60650814 -0.22206506 0.030237075
0.70637381 -0.14092386 0.029427968
0.70805252 -0.14055902 0.029393958
0.70978129 -0.13888109 0.030141486
0.7118355 -0.13724321 0.030951165
0.71343225 -0.13628468 0.031362746
0.60298949 -0.22160991 0.031755909
0.60504812 -0.22004175 0.030674478
0.60647845 -0.21832426 0.030079791
0.70441878 -0.13971889 0.029507719
0.70634252 -0.1385332 0.029654408
0.70803487 -0.136966 0.030650295
0.71015191 -0.13571912 0.031460691
0.60271668 -0.21996896 0.032136872
0.60349441 -0.21797995 0.031808585
0.60520577 -0.21634601 0.030661393
0.60672748 -0.21483858 0.030159257
0.70057082 -0.13902122 0.029623399
0.70258814 -0.13805553 0.029595546
0.70457476 -0.13653135 0.030482763
0.70638728 -0.1352115 0.031212205
0.70847005 -0.13457364 0.031531949
0.60235029 -0.21586448 0.032247335
0.60370749 -0.2145088 0.031712294
0.60553163 -0.21295744 0.030691024
0.6069845 -0.21180651 0.030227322
0.69733083 -0.13867076 0.029714989
0.69905978 -0.13777179 0.029792942
0.70093232 -0.13622516 0.030283386
0.70298398 -0.13464947 0.031136882
0.70477891 -0.13363239 0.031649638
0.60247189 -0.21252638 0.032215238
0.60413742 -0.21087591 0.031323783
0.60594296 -0.20964594 0.030398179
0.69413 -0.13796028 0.02981445
0.69580877 -0.13759544 0.029780453
0.69761288 -0.13579202 0.03020752
0.69963729 -0.13399348 0.031188702
0.70160401 -0.13292767 0.031748284
0.60186172 -0.21039177 0.032394614
0.60272253 -0.20909849 0.03207086
0.60476053 -0.20758022 0.030960124
0.60595465 -0.20555951 0.030550499
0.69040871 -0.13701132 0.029933104
0.69235164 -0.13672975 0.029890303
0.6942873 -0.13536185 0.030141253
0.69615388 -0.13387755 0.030763729
0.69810539 -0.13254175 0.031756431
0.70009422 -0.13186105 0.031813219
0.60209298 -0.20743589 0.03246149
0.60296899 -0.20562902 0.032210663
0.60474116 -0.20401841 0.031092318
0.60609871 -0.20220324 0.030486491
0.68886214 -0.13616106 0.029993668
0.69064373 -0.13485117 0.029980287
0.69263601 -0.13344926 0.030964425
0.69440931 -0.13194779 0.031706501
0.69632536 -0.13163406 0.031915311
0.60232234 -0.20366682 0.032548428
0.60344034 -0.20198719 0.032027524
0.60523993 -0.20036967 0.030917505
0.60645121 -0.19896294 0.030557256
0.68512625 -0.13534716 0.030109353
0.68710434 -0.13474153 0.030073632
0.68890387 -0.13304532 0.030736379
0.69080693 -0.13173276 0.031587232
0.69263422 -0.13069282 0.032033
0.6025517 -0.19989777 0.032635376
0.60392278 -0.19836393 0.031837523
0.60559416 -0.19701868 0.031044031
0.60668242 -0.19516307 0.030644946
0.6796087 -0.13584319 0.03023842
0.68111843 -0.13502291 0.030219954
0.68334848 -0.13409868 0.030269008
0.68549585 -0.13286167 0.03062805
0.6874575 -0.13108379 0.031655632
0.68942046 -0.13034521 0.032123849
0.60294938 -0.19690566 0.032698873
0.60423964 -0.19515188 0.032375462
0.60597664 -0.19337055 0.031161971
0.60729975 -0.19132875 0.030923683
0.67806208 -0.13499287 0.030298973
0.68000436 -0.13357142 0.030557124
0.68212235 -0.13226144 0.031062765
0.68422145 -0.13084583 0.031994507
0.6862067 -0.12999758 0.032214697
0.60396516 -0.19354688 0.032755576
0.60518205 -0.19232352 0.032754552
0.60644305 -0.18991828 0.031703889
0.60824209 -0.18825105 0.030900307
0.60936177 -0.18643719 0.030791204
0.67463392 -0.13469794 0.03039401
0.67659998 -0.13338068 0.030487308
0.67860013 -0.131908 0.031504724
0.68047196 -0.13063443 0.032254901
0.68239903 -0.1301277 0.032309003
0.60569549 -0.18801312 0.032680772
0.60703826 -0.18646891 0.032350894
0.60862148 -0.18484879 0.031516388
0.61025429 -0.18324745 0.030958103
0.61210924 -0.18127029 0.030848091
0.66896111 -0.13578425 0.030512504
0.67096555 -0.13450286 0.03069286
0.67292207 -0.13316658 0.031009199
0.67506951 -0.13165954 0.031991985
0.67715192 -0.13064668 0.032144658
0.60626566 -0.18485297 0.032910764
0.60737634 -0.18305087 0.032801624
0.609348 -0.18133171 0.031851206
0.61128378 -0.17961487 0.031243537
0.6127975 -0.17795703 0.030912062
0.61414886 -0.17608146 0.030923644
0.61527365 -0.17478251 0.030926839
0.66323423 -0.13653085 0.030640775
0.66560727 -0.13547617 0.03060597
0.66759211 -0.13422003 0.031014919
0.66958916 -0.13288201 0.031485122
0.67140138 -0.13154827 0.032430533
0.67311853 -0.13074984 0.032531314
0.6081292 -0.18017672 0.032978214
0.60958225 -0.17786977 0.03271196
0.61138749 -0.17603901 0.032329563
0.61321414 -0.17466605 0.031427193
0.61510396 -0.17289883 0.031068543
0.61689639 -0.17091464 0.030980531
0.61802113 -0.16961561 0.030983727
0.65783799 -0.13758637 0.030752935
0.65983081 -0.13684574 0.030720169
0.66192049 -0.13543648 0.031034909
0.66400087 -0.13363306 0.031924043
0.66607624 -0.1324015 0.032209121
0.66825223 -0.13135904 0.032640908
0.66986585 -0.1307593 0.032614365
0.61034799 -0.17472592 0.033055637
0.61200249 -0.17301889 0.032655023
0.61378163 -0.17120969 0.032253791
0.61595666 -0.16950847 0.031483952
0.61765736 -0.16793707 0.031034375
0.61923057 -0.16638994 0.031032205
0.62098461 -0.16447209 0.031034511
0.62316364 -0.16252218 0.031026723
0.65040672 -0.14060743 0.030868832
0.65256304 -0.13920146 0.030848261
0.65472788 -0.1378354 0.030826462
0.65658695 -0.13672344 0.031028599
0.65858752 -0.13516724 0.031994075
0.66058087 -0.1336786 0.032446682
0.66253966 -0.13253815 0.032615203
0.61326647 -0.16935293 0.032913089
0.61465657 -0.16780321 0.03275191
0.61627513 -0.16626497 0.032528497
0.617993 -0.1647276 0.032188859
0.62000114 -0.16292588 0.031785697
0.62205559 -0.16118577 0.031588323
0.62380272 -0.15966272 0.031330939
0.62548107 -0.158189 0.031347014
0.62764859 -0.15645039 0.031061422
0.62947428 -0.15473549 0.031056907
0.63129985 -0.15302052 0.031052375
0.6330961 -0.1515756 0.031041963
0.63519174 -0.14988981 0.031029824
0.63759965 -0.14834717 0.031006165
0.63932425 -0.14705838 0.030993758
0.64112049 -0.14561346 0.030983347
0.64312923 -0.14372382 0.031251337
0.64532691 -0.14222479 0.031231984
0.6471374 -0.14093116 0.031278115
0.6490522 -0.13936228 0.031505961
0.65124214 -0.13791531 0.031556997
0.65316892 -0.13647075 0.032067392
0.65517318 -0.13518053 0.032496843
0.65725011 -0.13397191 0.032658149
0.61550152 -0.16471468 0.033170212
0.61701542 -0.1632525 0.033167455
0.61882627 -0.16155143 0.03316297
0.62062359 -0.15951049 0.032944828
0.62238598 -0.15803963 0.032824744
0.62419295 -0.15635952 0.032553017
0.62647319 -0.15498857 0.032061454
0.62846452 -0.15332082 0.032118198
0.63021392 -0.15179192 0.031860918
0.63208032 -0.15006477 0.031676963
0.63425541 -0.14856164 0.031586818
0.63618326 -0.14699012 0.031826314
0.63802218 -0.14544415 0.031913519
0.64009213 -0.14396697 0.03205087
0.64193755 -0.14228392 0.032245185
0.64379555 -0.14081749 0.03270065
0.64584452 -0.13928708 0.032746505
0.64822435 -0.13790315 0.032992579
0.64993507 -0.13662484 0.032980263
0.65202647 -0.13533354 0.032958511
0.62208712 -0.15648431 0.033204269
0.62357187 -0.15528995 0.033195652
0.62565053 -0.15361787 0.033183608
0.62719357 -0.15188783 0.033186696
0.62897527 -0.15045458 0.033176366
0.63105392 -0.14878251 0.033164322
0.63313258 -0.14711043 0.033152279
0.63491428 -0.14567716 0.033141948
0.63699293 -0.14400509 0.033129904
0.63900054 -0.14248791 0.03311586
0.641092 -0.14119655 0.033094108
0.64257675 -0.14000219 0.03308551
0.64583242 -0.26983488 0.026802961
0.64261866 -0.2691215 0.026902808
0.64083308 -0.26788601 0.026978975
0.63054991 -0.25903818 0.02746015
0.62924635 -0.25790969 0.027521342
0.62753272 -0.25651738 0.02759948
0.62391436 -0.25448012 0.027742306
0.6258415 -0.25441426 0.027694615
0.62294793 -0.25327837 0.027796645
0.62415028 -0.25231117 0.027789675
0.62116122 -0.25154895 0.027884999
0.62270069 -0.25050855 0.02787119
0.61974818 -0.24991485 0.027961407
0.62125111 -0.24870586 0.027952692
0.62321967 -0.24703573 0.027192937
0.61838228 -0.24784693 0.028047329
0.61955988 -0.24660274 0.028047826
0.62155914 -0.24492213 0.027475132
0.61714947 -0.24606772 0.028122693
0.61786866 -0.2444997 0.028142886
0.61987621 -0.24281308 0.027632702
0.61655462 -0.24271168 0.028220568
0.6184237 -0.24100684 0.027714344
0.61527002 -0.24065256 0.028304171
0.61700565 -0.23920098 0.027961956
0.6138401 -0.23866919 0.028389631
0.61534309 -0.23709668 0.028202277
0.61752349 -0.23569189 0.027367963
0.61242986 -0.23650503 0.028479032
0.61369115 -0.2349956 0.028483935
0.61582547 -0.23358032 0.027463416
0.61763626 -0.23212367 0.027452921
0.72067064 -0.14918727 0.027857749
0.61236745 -0.23318166 0.02856249
0.61417669 -0.23147561 0.027779875
0.61593825 -0.23001212 0.027548419
0.61133331 -0.23109615 0.028640313
0.61274749 -0.22967114 0.027972084
0.61448282 -0.22820219 0.027630258
0.61659539 -0.22650281 0.027617998
0.71568203 -0.14713894 0.028035933
0.60996318 -0.22892332 0.028728902
0.61116707 -0.22758684 0.02856423
0.61289287 -0.22632566 0.027817266
0.61513996 -0.22469288 0.027699836
0.7136696 -0.14546742 0.028128635
0.60964918 -0.2255062 0.028821092
0.61148602 -0.22419924 0.02853338
0.61344194 -0.22258133 0.027795319
0.61525273 -0.22112469 0.027784839
0.71051085 -0.14424795 0.028239533
0.60890681 -0.22350572 0.02888936
0.60986751 -0.22223809 0.02889598
0.61180174 -0.22048794 0.028139073
0.61372042 -0.2187556 0.02788242
0.70725775 -0.14389612 0.028331494
0.70895857 -0.14266934 0.028318154
0.60841799 -0.22043546 0.02897748
0.61038703 -0.2186937 0.028386235
0.61240101 -0.21696039 0.02796041
0.61363786 -0.21571711 0.02795938
0.70375055 -0.14365858 0.028093612
0.70580816 -0.14209345 0.028413011
0.70725209 -0.14142668 0.028392453
