# .PCD v0.7 - Point Cloud Data file format
VERSION 0.7
FIELDS x y z
SIZE 4 4 4
TYPE F F F
COUNT 1 1 1
WIDTH 1380
HEIGHT 1
VIEWPOINT 0 0 0 1 0 0 0
POINTS 1380
DATA ascii
0.52757978 -0.2763744 0.032999553
0.52830988 -0.27419496 0.032619275
0.52208197 -0.16079256 0.031342778
0.52129102 -0.15894666 0.031473458
0.52097416 -0.15672314 0.032237247
0.52000749 -0.1550746 0.032325044
0.52465433 -0.28045034 0.033795036
0.5249781 -0.2789802 0.033545554
0.52523839 -0.277091 0.032736622
0.51871479 -0.15852495 0.031402327
0.51844418 -0.15668365 0.031830676
0.51816106 -0.15489081 0.032371119
0.52293271 -0.28102639 0.033097185
0.52332312 -0.27932915 0.032815296
0.51709485 -0.1580795 0.031439163
0.51599854 -0.15658045 0.031448875
0.51577747 -0.15451856 0.032121114
0.51326162 -0.15604967 0.031513944
0.51332301 -0.15424314 0.031918157
0.51293641 -0.15230891 0.032475412
0.51712817 -0.2846162 0.033711899
0.518098 -0.28265595 0.033995043
0.51104844 -0.15446529 0.031551912
0.51075149 -0.15234938 0.03219977
0.51042616 -0.15045609 0.032517754
0.51555687 -0.28642717 0.0341096
0.51534188 -0.28480834 0.033177603
0.50905716 -0.15403973 0.031598743
0.50826806 -0.15222435 0.03179647
0.50827515 -0.15010753 0.032569744
0.51303577 -0.28693977 0.034182247
0.51285022 -0.28504878 0.033162683
0.50568312 -0.15189222 0.031659998
0.50566715 -0.14988527 0.032492459
0.51045662 -0.28881449 0.034273706
0.51058263 -0.28719527 0.03391638
0.51054448 -0.28545156 0.033228278
0.50369871 -0.15134653 0.031705119
0.5032016 -0.14968073 0.032113872
0.50287157 -0.14789291 0.032683402
0.50795209 -0.29395619 0.03440471
0.50787246 -0.29247671 0.034387991
0.50802493 -0.28979778 0.034350023
0.50803095 -0.28741914 0.03348596
0.50833648 -0.28594223 0.033292424
0.50099117 -0.14963306 0.031865567
0.50031334 -0.14772713 0.032462619
0.50561333 -0.29490566 0.034478094
0.5056538 -0.29259545 0.034447707
0.50553793 -0.29006523 0.034085158
0.50556338 -0.28779349 0.033388697
0.49800888 -0.14941607 0.031829871
0.49788943 -0.14776859 0.032312304
0.49777019 -0.14612576 0.032794807
0.50357461 -0.29530329 0.034536656
0.50343519 -0.29271418 0.034507412
0.50333172 -0.29022929 0.033895012
0.50343359 -0.28825337 0.033450406
0.49652362 -0.14949557 0.031869859
0.49567357 -0.14778328 0.032120503
0.4953877 -0.14595653 0.032855153
0.5010857 -0.29729119 0.034627184
0.50098622 -0.29544184 0.034606345
0.5008468 -0.2928527 0.034577113
0.50074577 -0.29039869 0.033798277
0.50140131 -0.28854838 0.03350747
0.49332565 -0.14787406 0.032099918
0.492742 -0.14587393 0.032769606
0.49849731 -0.29742974 0.03469687
0.4983978 -0.29558039 0.034676
0.49825847 -0.29299125 0.034646738
0.49823231 -0.29068208 0.033617679
0.49062702 -0.14787418 0.032003962
0.49035788 -0.14597654 0.032570522
0.49025539 -0.14430234 0.032968804
0.4964585 -0.29813233 0.034759261
0.49631912 -0.29554322 0.034730047
0.49603984 -0.29311001 0.034706458
0.49595138 -0.29107505 0.033682518
0.48860589 -0.14768437 0.032054573
0.48813513 -0.14602494 0.032462709
0.48801681 -0.14405119 0.033024311
0.49355096 -0.29509789 0.034796998
0.49345618 -0.29329631 0.034526542
0.49337211 -0.29158559 0.033756685
0.48553857 -0.14609307 0.032364938
0.48542842 -0.14418975 0.033093981
0.49126583 -0.29811352 0.034895241
0.49100244 -0.29597616 0.034875028
0.49086809 -0.29349422 0.034291256
0.49096853 -0.29190049 0.033823729
0.48300001 -0.14605924 0.032271955
0.48284009 -0.1443283 0.033163652
0.4885335 -0.29833394 0.034969721
0.48841405 -0.29611471 0.034944713
0.48827389 -0.2936548 0.034250148
0.48793271 -0.29200089 0.033904638
0.48031685 -0.14589301 0.032249279
0.48023176 -0.14409694 0.033229172
0.48594511 -0.29847246 0.035039376
0.48582566 -0.29625323 0.035014372
0.48567829 -0.29379374 0.034320034
0.48557436 -0.29200295 0.033966549
0.47771761 -0.14603212 0.032319255
0.47764337 -0.14423548 0.033298798
0.48360702 -0.296372 0.035074074
0.48344842 -0.29395717 0.034158312
0.48354208 -0.29229796 0.034023609
0.47550219 -0.14624585 0.032602414
0.4754248 -0.14435422 0.033358518
0.48106304 -0.29642427 0.034294903
0.48084715 -0.29411843 0.034117404
0.48076716 -0.29263273 0.034100652
0.47292677 -0.14676806 0.032704391
0.47283641 -0.14449275 0.033428203
0.47836781 -0.29648611 0.034212526
0.47824785 -0.29425755 0.034187376
0.47816795 -0.29277185 0.034170609
0.47041106 -0.14865816 0.032544285
0.47033027 -0.14690703 0.032774277
0.47024801 -0.1446313 0.033497844
0.4762117 -0.2967678 0.03527312
0.4760319 -0.29433206 0.03446877
0.47577542 -0.29260188 0.034231216
0.4678213 -0.15128009 0.032645505
0.46812528 -0.14943238 0.03261409
0.46811917 -0.14709622 0.033001393
0.46794745 -0.14460602 0.033557884
0.47346279 -0.29438239 0.034981452
0.47316021 -0.29244387 0.034297824
0.4659614 -0.15404356 0.032729372
0.46574381 -0.15188795 0.032707714
0.46562392 -0.1496594 0.032682568
0.46553221 -0.14727007 0.033154838
0.46553525 -0.14467154 0.033622026
0.47084543 -0.29458794 0.034719262
0.47061944 -0.29215994 0.034360852
0.47021022 -0.29021779 0.034346946
0.46311247 -0.14970067 0.032749008
0.4629384 -0.1474089 0.033224683
0.4628526 -0.1450271 0.03369689
0.4691962 -0.29213452 0.034397885
0.46909621 -0.29027739 0.034376934
0.46077669 -0.14954631 0.032808308
0.46050644 -0.14746311 0.033360619
0.46024433 -0.14479576 0.033762425
0.45809251 -0.14999476 0.032884404
0.45798707 -0.14784026 0.033502966
0.45765594 -0.1449343 0.033832066
0.45559818 -0.15019596 0.03295242
0.45556211 -0.14790916 0.033674654
0.45543736 -0.14505303 0.033891782
0.45270759 -0.15184067 0.033049133
0.45294902 -0.15015122 0.03328814
0.45306867 -0.14785829 0.033912592
0.45305043 -0.1454899 0.033959948
0.45040208 -0.1524962 0.03311795
0.45048642 -0.15037441 0.033755738
0.45039994 -0.14791921 0.034060296
0.45049524 -0.14624488 0.034036554
0.44800034 -0.15432759 0.033204198
0.44832817 -0.15258378 0.033506956
0.44830075 -0.15025719 0.03414505
0.4481813 -0.14803796 0.034120016
0.44884121 -0.14651889 0.034083433
0.4528718 -0.28823349 0.034776606
0.4521468 -0.28671458 0.034776367
0.44565582 -0.15504906 0.033274878
0.44576213 -0.1527888 0.03374359
0.44571242 -0.15039572 0.03421475
0.44561285 -0.14854637 0.034193851
0.45037019 -0.28829965 0.034843102
0.45015556 -0.28628901 0.034823209
0.44323307 -0.15570024 0.033346683
0.44316834 -0.15292764 0.033813406
0.44312403 -0.15053426 0.034284391
0.44814223 -0.28841889 0.034903064
0.44794002 -0.28604573 0.034878239
0.44092941 -0.15787224 0.033434723
0.44100517 -0.15581948 0.033406645
0.44097078 -0.15314639 0.033573702
0.44098058 -0.15129295 0.033750005
0.44589713 -0.28821978 0.034959439
0.44540307 -0.28595802 0.034943651
0.4375118 -0.16010389 0.033552706
0.43844095 -0.15849645 0.033507913
0.43840587 -0.15595859 0.033476587
0.43855944 -0.15362227 0.033442937
0.43596873 -0.16083837 0.033602532
0.43592516 -0.15853335 0.033847235
0.43600228 -0.15610003 0.03414176
0.44051585 -0.2851021 0.035061032
0.44043592 -0.28361639 0.03504426
0.44008172 -0.2816487 0.035028569
0.43369767 -0.16303968 0.033690043
0.43373281 -0.16105168 0.033864006
0.43354422 -0.15881304 0.034578349
0.4376967 -0.28115553 0.035084844
0.43695122 -0.27883628 0.035074983
0.43062615 -0.16593572 0.033807404
0.43137929 -0.16378459 0.033760302
0.43118501 -0.16132316 0.033916082
0.43139324 -0.15939547 0.03450457
0.43531165 -0.28066233 0.035141177
0.4349575 -0.27869463 0.03512549
0.43463105 -0.27658355 0.035107262
0.43401492 -0.27502012 0.035103563
0.42825726 -0.16804914 0.033896383
0.42891997 -0.16652369 0.033859633
0.42877999 -0.16392373 0.033830278
0.42916182 -0.16179246 0.033793215
0.43345219 -0.27840272 0.035161279
0.43281609 -0.27646786 0.035153415
0.43232021 -0.27428305 0.035138663
0.42665139 -0.16896288 0.033950113
0.42669201 -0.16664293 0.033919595
0.42663836 -0.16426182 0.033890765
0.43108436 -0.27592197 0.035191897
0.42996794 -0.27395958 0.035196245
0.42945051 -0.271705 0.035181213
0.42359954 -0.17376173 0.034091108
0.42414588 -0.17191967 0.034053385
0.424301 -0.1694638 0.034268249
0.4243215 -0.16699642 0.034441043
0.42486593 -0.16500236 0.033946663
0.42797381 -0.27348095 0.035242509
0.42721903 -0.27156574 0.035238001
0.42680478 -0.2695525 0.035223305
0.42618868 -0.26798904 0.03521961
0.42144635 -0.17642236 0.034181379
0.42176536 -0.17424007 0.034245368
0.42162168 -0.17188157 0.0347194
0.42182016 -0.16964437 0.035085935
0.42255339 -0.16795652 0.035045277
0.42523462 -0.27102008 0.035283126
0.42487118 -0.26945645 0.035272814
0.42420176 -0.26705241 0.035259806
0.42352656 -0.2646549 0.03524711
0.41853997 -0.18123414 0.034318727
0.4189418 -0.17947429 0.034285843
0.41943404 -0.17708883 0.034242608
0.41932017 -0.1743187 0.034610596
0.42235547 -0.26595923 0.035294395
0.42227548 -0.26447353 0.035277627
0.42219549 -0.26298782 0.035260871
0.41669285 -0.18381631 0.034399968
0.41699684 -0.18196858 0.034368552
0.41697472 -0.17982793 0.034341939
0.41717306 -0.17758231 0.034308236
0.41747743 -0.17533104 0.03427165
0.41448396 -0.18890116 0.034522485
0.41469306 -0.18725097 0.034496054
0.4150067 -0.18477571 0.03445638
0.41486675 -0.18217571 0.034427051
0.41496465 -0.18004192 0.034397401
0.41663715 -0.25658035 0.03532533
0.4158566 -0.25465807 0.035321392
0.4156546 -0.25216299 0.035295013
0.41516334 -0.2499543 0.035279863
0.41465208 -0.24737418 0.035260513
0.41253302 -0.19186138 0.034611251
0.41303867 -0.18972351 0.034570847
0.41329002 -0.18747507 0.034535706
0.4135614 -0.18559805 0.034504756
0.41426927 -0.25409961 0.035355948
0.41363317 -0.25216475 0.035348088
0.41330671 -0.25005367 0.035329826
0.41316682 -0.24745367 0.035300471
0.41302681 -0.24485369 0.035271157
0.41246927 -0.24279754 0.035259672
0.41206428 -0.24080774 0.035245035
0.41000512 -0.20255075 0.034813304
0.40988517 -0.2003222 0.034788154
0.40993088 -0.19771227 0.034753814
0.41038793 -0.19582532 0.034717865
0.41178146 -0.2493903 0.03536142
0.41168153 -0.24753317 0.035340469
0.41154155 -0.24493319 0.035311125
0.41122594 -0.24252884 0.035288878
0.41067958 -0.23998785 0.035270941
0.41039908 -0.23754439 0.035247285
0.40829697 -0.21232709 0.034982245
0.40852225 -0.20465225 0.034878902
0.40851986 -0.20263025 0.034853272
0.40849775 -0.20048958 0.034826688
0.40906253 -0.19887623 0.034791362
0.55160451 -0.22693728 0.030407678
0.55150414 -0.22507237 0.03038663
0.55136365 -0.22246149 0.03035716
0.55124319 -0.22022361 0.030331902
0.55123973 -0.21738097 0.030295908
0.55133498 -0.21498191 0.030262947
0.55121458 -0.21274403 0.03023769
0.55102932 -0.21029586 0.030211467
0.55056059 -0.20754226 0.030188801
0.55046022 -0.20567735 0.030167755
0.54926395 -0.23903231 0.030622656
0.54947388 -0.23737523 0.030596102
0.54971069 -0.23517434 0.030561946
0.54989368 -0.23252916 0.030452102
0.54996353 -0.23000325 0.030239552
0.54986405 -0.2277561 0.030130263
0.54976553 -0.2251267 0.029932734
0.54962468 -0.2225104 0.029903185
0.54950398 -0.22026785 0.029877875
0.54936314 -0.21765153 0.029848371
0.54922235 -0.21503523 0.029818852
0.54910165 -0.21279268 0.029793542
0.5489608 -0.21017638 0.029764008
0.54882002 -0.20756006 0.029734502
0.54867864 -0.20533222 0.029793244
0.54848117 -0.20275906 0.029995043
0.54792184 -0.20020238 0.030164836
0.54759407 -0.19808245 0.030146509
0.54707628 -0.19560933 0.030128695
0.54734784 -0.24511975 0.030750215
0.54760033 -0.24286191 0.030714916
0.54785299 -0.24022835 0.030591484
0.5478006 -0.23760252 0.030198228
0.54776227 -0.23534429 0.029837085
0.54767656 -0.23271206 0.029583625
0.54722071 -0.23009287 0.029312203
0.54713976 -0.22782983 0.029118847
0.54711711 -0.22535819 0.029076166
0.54679865 -0.22278251 0.028908907
0.54675585 -0.22031723 0.028950149
0.54672438 -0.21794061 0.028882317
0.54648668 -0.21532801 0.028593751
0.54637194 -0.21279941 0.028781401
0.54630923 -0.21035014 0.0289068
0.54599047 -0.20776558 0.028739441
0.54594785 -0.20530473 0.028780747
0.54581481 -0.20280382 0.029052623
0.54589593 -0.20014949 0.02932802
0.54569513 -0.19797133 0.02963914
0.54546261 -0.1954381 0.030002136
0.54528308 -0.1928625 0.030140856
0.54465878 -0.1905269 0.030127585
0.54429638 -0.18842663 0.030110417
0.54537165 -0.25008824 0.030865137
0.54573411 -0.24758752 0.030732939
0.54558092 -0.24521622 0.030380931
0.5455395 -0.24296907 0.030020013
0.54555309 -0.24041201 0.029670414
0.54534453 -0.23782367 0.029247962
0.5453127 -0.23545019 0.029180162
0.54531729 -0.23306742 0.0289574
0.54479265 -0.23055711 0.028631469
0.54465091 -0.22792448 0.028601786
0.54452944 -0.22566795 0.028576318
0.54438776 -0.22303532 0.028546577
0.54424608 -0.2204027 0.028516896
0.54412466 -0.21814616 0.028491428
0.54398298 -0.21551354 0.0284617
0.54384124 -0.21288091 0.028432017
0.54371977 -0.21062438 0.028406551
0.54357809 -0.20799175 0.028376808
0.54343635 -0.20535913 0.028347127
0.54343402 -0.20296292 0.028416801
0.54339308 -0.2004436 0.028619297
0.54325503 -0.1979531 0.028924823
0.54303962 -0.19539882 0.029231522
0.54286015 -0.1928149 0.029370135
0.54269981 -0.19036822 0.029776789
0.54245687 -0.18790606 0.029901974
0.54243696 -0.18564057 0.030123826
0.54179817 -0.18369761 0.030115925
0.54266965 -0.25546965 0.031004352
0.54328215 -0.25295448 0.030956354
0.54360235 -0.25056574 0.030584168
0.54348248 -0.24803132 0.030154955
0.54317427 -0.24535002 0.029528713
0.54315382 -0.2430921 0.029055947
0.54308331 -0.24083225 0.028806798
0.54301548 -0.23829854 0.028776396
0.54317588 -0.23554689 0.028737264
0.54325253 -0.23346834 0.028708842
0.54328871 -0.2306376 0.028671958
0.54314703 -0.22800498 0.028642232
0.54203361 -0.20732006 0.028408809
0.5419324 -0.20543961 0.028387571
0.54161292 -0.20300509 0.028365061
0.54116124 -0.20045193 0.028344508
0.54077566 -0.19795808 0.028322961
0.54069948 -0.19556893 0.028394656
0.54035968 -0.19305198 0.028635325
0.54018003 -0.19064453 0.029134989
0.5401091 -0.18797502 0.029291078
0.54015791 -0.1855135 0.029598445
0.53983706 -0.18311259 0.030093238
0.53917295 -0.1805785 0.030145183
0.5385341 -0.17863554 0.030137282
0.54065323 -0.25969216 0.031110864
0.54105669 -0.25792497 0.031077847
0.54117501 -0.25566354 0.03077318
0.54129493 -0.2531032 0.030210026
0.54084986 -0.25074229 0.029574782
0.54080838 -0.24811789 0.029084008
0.54092395 -0.24554934 0.028923327
0.54140818 -0.24333581 0.028882518
0.54159957 -0.24128884 0.028851502
0.53925145 -0.19766249 0.028359177
0.53884131 -0.1956477 0.028344367
0.53803593 -0.1930937 0.028333038
0.53773886 -0.19057715 0.028308878
0.53765011 -0.18825701 0.028512591
0.537301 -0.18573609 0.028725784
0.53755301 -0.18317294 0.029320242
0.5371992 -0.18070561 0.029652905
0.53702253 -0.1783424 0.030173212
0.53666693 -0.17636646 0.030157454
0.53857654 -0.26279578 0.031204756
0.53892404 -0.26053929 0.031066956
0.53882909 -0.25832725 0.030557837
0.53881484 -0.25573137 0.029920809
0.5387727 -0.25312012 0.029409364
0.53834581 -0.25089228 0.029058818
0.53868365 -0.24876206 0.029022891
0.53534412 -0.19045387 0.02837017
0.53498554 -0.18846148 0.028354278
0.53484386 -0.18582885 0.02832455
0.53501272 -0.18326437 0.028621064
0.53477997 -0.18076742 0.029074837
0.53457093 -0.17824437 0.029402591
0.53441292 -0.17584378 0.029876487
0.53426903 -0.17350236 0.030183993
0.53597599 -0.26542866 0.031306423
0.53658855 -0.26347581 0.031098813
0.5367251 -0.26106292 0.030659672
0.53638363 -0.25850812 0.029762778
0.53635305 -0.2559022 0.029174678
0.53631043 -0.25335857 0.029143535
0.53686219 -0.25134888 0.029103521
0.53346133 -0.18816589 0.028390508
0.53296393 -0.18592948 0.028375166
0.53244627 -0.18331696 0.02835558
0.53232479 -0.18106043 0.028330112
0.53219056 -0.17863069 0.028666561
0.5319289 -0.17608708 0.02927779
0.53193057 -0.17352034 0.029712008
0.53167558 -0.17121547 0.030223001
0.53073102 -0.16914071 0.030221425
0.53359723 -0.26755095 0.031395771
0.53416443 -0.26593083 0.031360321
0.53417689 -0.26338992 0.030404262
0.5339365 -0.2609174 0.02955189
0.53416431 -0.25882718 0.029269269
0.53469151 -0.2565569 0.029226597
0.53090185 -0.18264528 0.02838755
0.53051198 -0.18100658 0.028376983
0.52979302 -0.17885746 0.028368555
0.52941889 -0.17633072 0.02840879
0.52930105 -0.17364204 0.029101295
0.52929455 -0.17103681 0.029505063
0.52903682 -0.16864423 0.030176206
0.52841204 -0.16658407 0.030249815
0.53178716 -0.26842225 0.031181462
0.53178632 -0.2662181 0.03067603
0.5317263 -0.26373631 0.029795721
0.53147149 -0.26128224 0.029371087
0.52686089 -0.17622332 0.028412029
0.52691197 -0.17356721 0.028627062
0.52663857 -0.17128223 0.029212631
0.52665174 -0.16871026 0.029536944
0.5263896 -0.1664245 0.030050743
0.52605432 -0.16446593 0.030284764
0.52865797 -0.27305207 0.031595189
0.52951884 -0.27124649 0.031318814
0.52963108 -0.26890498 0.03068332
0.52932298 -0.26643166 0.029826291
0.52931213 -0.26392534 0.029461283
0.52988899 -0.26190576 0.029420512
0.52450144 -0.17582156 0.028468845
0.52440023 -0.17394112 0.028447622
0.52414787 -0.17154431 0.029174142
0.52396983 -0.16899964 0.029396586
0.52400446 -0.16633198 0.029576205
0.5239265 -0.1640532 0.030251985
0.52318603 -0.16212574 0.030330304
0.52654117 -0.2754097 0.03168067
0.52712816 -0.2738032 0.031519812
0.52722609 -0.27136722 0.03061093
0.5272274 -0.26882601 0.029689375
0.52722311 -0.2666688 0.029550947
0.52753091 -0.2647979 0.029519087
0.52260131 -0.17554608 0.028515186
0.52214432 -0.17406186 0.028508333
0.52207589 -0.17168258 0.028579954
0.52176893 -0.16916199 0.028728785
0.52161592 -0.16641553 0.029175416
0.52142549 -0.1639151 0.029509926
0.52111375 -0.16168398 0.030288126
0.52031779 -0.15978555 0.030375831
0.52466732 -0.27595559 0.031593855
0.52470827 -0.27410141 0.030961808
0.52470785 -0.27157706 0.029991865
0.5249151 -0.26912871 0.029642727
0.52566063 -0.26741248 0.02960136
0.52036279 -0.17365432 0.028549865
0.51961255 -0.17185889 0.028546777
0.51924932 -0.16931356 0.028523946
0.51917809 -0.16658661 0.02856816
0.51879418 -0.16422993 0.029205022
0.51869857 -0.16163282 0.029908225
0.51866108 -0.15957499 0.03041663
0.52197486 -0.28089085 0.031870052
0.52198982 -0.27913031 0.031722266
0.52256948 -0.27680892 0.031302426
0.5221715 -0.27430731 0.03044739
0.52219737 -0.2718496 0.029748559
0.51710522 -0.16917685 0.028578512
0.51647574 -0.16682178 0.028565116
0.51638681 -0.16435117 0.028717967
0.51614535 -0.16190727 0.02951183
0.51614767 -0.15946545 0.030214407
0.51552635 -0.15761063 0.030473929
0.52006495 -0.28132945 0.030925304
0.52014124 -0.27925947 0.030897036
0.52001429 -0.27665105 0.030756073
0.51999444 -0.2744911 0.029951051
0.5201062 -0.27280161 0.02981551
0.51434594 -0.16648316 0.028616687
0.51409841 -0.16468599 0.028600376
0.51388639 -0.16228877 0.029242428
0.51365536 -0.15953073 0.029880427
0.51344544 -0.15716092 0.030522812
0.51724792 -0.28338817 0.032025781
0.51772344 -0.28178313 0.031437103
0.51752025 -0.27939975 0.030967586
0.51746798 -0.27687013 0.030186446
0.51767451 -0.27491188 0.029906109
0.5126754 -0.16627085 0.028657813
0.51156533 -0.16475299 0.028667664
0.51130652 -0.16226068 0.028830361
0.5110749 -0.15952612 0.029552091
0.51097363 -0.15722793 0.030224722
0.51096261 -0.15549834 0.030566826
0.51538354 -0.28348798 0.032075949
0.51523519 -0.28210822 0.031789478
0.51493537 -0.27958372 0.030704219
0.51496601 -0.27713132 0.030005354
0.50956631 -0.16455138 0.028717555
0.50869292 -0.1623351 0.02871231
0.50858182 -0.15952514 0.028952433
0.50837815 -0.15713239 0.029654935
0.508371 -0.15492085 0.030484572
0.50723851 -0.15300447 0.030632868
0.51259702 -0.28382415 0.032153323
0.51273745 -0.28219974 0.03168438
0.51271904 -0.27974927 0.030431021
0.51302755 -0.27789509 0.03006589
0.506437 -0.16245584 0.028773021
0.50629526 -0.15982319 0.028743338
0.50612307 -0.1573467 0.029133227
0.5058893 -0.15472683 0.030106543
0.5055505 -0.15290779 0.030675925
0.51055622 -0.28412038 0.032210629
0.51025343 -0.28232071 0.031377181
0.51050764 -0.28027847 0.030262299
0.50425673 -0.16197981 0.028824203
0.50403941 -0.15994392 0.028804064
0.50354195 -0.15770754 0.028788678
0.50341648 -0.15523121 0.029466728
0.50322247 -0.15275559 0.03042724
0.50264353 -0.15100607 0.030728038
0.50788629 -0.28475243 0.032288704
0.50772822 -0.2826719 0.030965865
0.50830168 -0.28116542 0.030231396
0.50138438 -0.15732011 0.028840365
0.50075972 -0.1552798 0.0289976
0.50074232 -0.15264997 0.030227154
0.50047439 -0.15065458 0.030780487
0.50510365 -0.28703061 0.032390635
0.50541109 -0.2852236 0.03185942
0.50535893 -0.28279722 0.030551624
0.49857533 -0.15523028 0.028887548
0.49830636 -0.15275213 0.029946946
0.49812886 -0.15049958 0.030840058
0.50310612 -0.28743675 0.032448184
0.50288326 -0.28533274 0.031626988
0.50274289 -0.28297162 0.030400146
0.49595922 -0.15502742 0.028953604
0.49569428 -0.15278703 0.02974497
0.49575168 -0.15062225 0.030703884
0.4954384 -0.14914736 0.030893471
0.50045502 -0.28760573 0.032289006
0.50035089 -0.28538257 0.031293869
0.50022995 -0.28332165 0.030470539
0.49320823 -0.15486604 0.029023731
0.49307558 -0.15283856 0.029585069
0.49318254 -0.15055166 0.030606689
0.49293923 -0.14903173 0.030957572
0.49739367 -0.28968757 0.032626633
0.49805522 -0.28785211 0.032169145
0.49796346 -0.28543574 0.030890303
0.49807343 -0.28378731 0.030533014
0.49093211 -0.15461071 0.029080182
0.49082753 -0.15286145 0.029394198
0.49067798 -0.15058789 0.030258534
0.49045584 -0.14887965 0.031020783
0.49531358 -0.28994855 0.03268452
0.49544469 -0.28801689 0.032093823
0.49533522 -0.2855764 0.030961055
0.49503002 -0.28398791 0.030615404
0.4894281 -0.15469119 0.029120672
0.48821923 -0.15324721 0.029134043
0.48807901 -0.15091455 0.029858422
0.48782194 -0.14853509 0.030942593
0.4929392 -0.29030004 0.032751277
0.49283206 -0.28818923 0.031976961
0.4927105 -0.28575337 0.030809836
0.49250242 -0.28361401 0.030676993
0.49175838 -0.28205085 0.030676644
0.48568317 -0.15316741 0.029199596
0.48545524 -0.15105498 0.029929074
0.48530725 -0.14846583 0.030900497
0.49062383 -0.29070449 0.032817159
0.49059004 -0.28835338 0.031787764
0.49045691 -0.28589222 0.030759579
0.49033543 -0.28363568 0.030734111
0.49005145 -0.28116155 0.030710131
0.4897165 -0.27914274 0.030693289
0.48321241 -0.15329964 0.029266082
0.48320636 -0.15117535 0.029989567
0.48306766 -0.14858571 0.030960778
0.48222718 -0.146862 0.031211052
0.48825303 -0.2907753 0.032880239
0.48796973 -0.28846049 0.03204545
0.48782599 -0.28600568 0.03099677
0.48770356 -0.28377655 0.030804919
0.4876411 -0.28121513 0.030774025
0.48755893 -0.27875531 0.030744988
0.48069951 -0.15364967 0.029336428
0.48058265 -0.15131576 0.030060221
0.4804548 -0.14872554 0.031031096
0.48036277 -0.14696178 0.031261217
0.48548171 -0.29069918 0.032951992
0.48535126 -0.2885896 0.032178298
0.48519763 -0.28611898 0.031233918
0.48507169 -0.28391743 0.030875787
0.48497042 -0.28203696 0.030854564
0.47805834 -0.15351233 0.029654115
0.47794965 -0.15117952 0.030377647
0.47783425 -0.14879757 0.030934032
0.47775266 -0.14710149 0.03133148
0.48316628 -0.29110366 0.033017859
0.48310488 -0.28872454 0.032155596
0.48293942 -0.28627634 0.03107282
0.48291484 -0.28412715 0.030935034
0.48315358 -0.28190792 0.030900571
0.47551674 -0.15543574 0.029495083
0.47580475 -0.15363294 0.029714741
0.47570303 -0.15129977 0.030438114
0.47559813 -0.14895137 0.031078026
0.4755154 -0.14722121 0.031391688
0.48065436 -0.29133159 0.033086658
0.48047203 -0.28893673 0.031810515
0.48030531 -0.28643554 0.031032773
0.48022431 -0.28493118 0.03101581
0.47326085 -0.1555565 0.029555809
0.4731878 -0.15384626 0.029973684
0.47308207 -0.15144005 0.030508678
0.47299796 -0.14917544 0.031357482
0.47804424 -0.2914713 0.033156905
0.47784826 -0.28907713 0.031881139
0.47767344 -0.28657642 0.031103641
0.47759244 -0.28507206 0.031086631
0.47739005 -0.28131115 0.031044202
0.47061336 -0.15409333 0.030907214
0.47051173 -0.15184502 0.031248178
0.47041556 -0.14973849 0.031557441
0.47590202 -0.29137221 0.033211857
0.47560883 -0.28916836 0.032107785
0.47541752 -0.28669715 0.031164352
0.47533655 -0.28519279 0.031147344
0.47584563 -0.28063947 0.031076185
0.47465691 -0.27957156 0.031093817
0.46841922 -0.15433399 0.031668164
0.46839699 -0.15218437 0.031641457
0.46894416 -0.15019131 0.031601794
0.47341865 -0.29122013 0.033275068
0.47301218 -0.28923917 0.032572802
0.47278565 -0.286838 0.03123516
0.47270468 -0.28533366 0.031218197
0.47129235 -0.29108456 0.033329129
0.4704634 -0.28913552 0.032725871
0.47015378 -0.28697887 0.031306028
0.46994337 -0.28482139 0.031284153
0.46955514 -0.28286201 0.031269446
0.46246549 -0.15651564 0.030851627
0.46295822 -0.1544317 0.031312469
0.46306637 -0.15233207 0.031672031
0.46280169 -0.15070708 0.031769492
0.46810827 -0.28925711 0.031388614
0.46789786 -0.2870996 0.031366739
0.46777639 -0.28484309 0.03134127
0.4675591 -0.2828072 0.031321131
0.46103036 -0.15950346 0.030927204
0.4610081 -0.15734486 0.0309004
0.46086696 -0.15472314 0.030870829
0.46080282 -0.152365 0.031509493
0.46074089 -0.15063035 0.031822577
0.46592107 -0.2889027 0.031441487
0.46564195 -0.28722036 0.03142745
0.46552053 -0.28496382 0.031401999
0.46577501 -0.28268716 0.031366404
0.45891929 -0.15962094 0.030483883
0.45853794 -0.15747745 0.030784972
0.45824596 -0.15486342 0.030941378
0.45818907 -0.15250489 0.031579856
0.45836648 -0.15098187 0.031889331
0.4639861 -0.28745654 0.031723984
0.46403682 -0.28542039 0.031446703
0.45612752 -0.15949085 0.030055251
0.45595521 -0.15768966 0.030036878
0.45562494 -0.15500367 0.031011913
0.45560607 -0.15273136 0.031872816
0.45554066 -0.15128273 0.031967297
0.45351592 -0.1600078 0.030130347
0.45341894 -0.15781355 0.030271754
0.45339078 -0.15515606 0.031155817
0.45338371 -0.15289439 0.032044336
0.4540492 -0.15136257 0.032007441
0.45764819 -0.28757977 0.033225749
0.45771176 -0.28528011 0.03227777
0.457486 -0.28343332 0.031736262
0.45099181 -0.16023098 0.030949719
0.45096782 -0.15794033 0.031017441
0.45083639 -0.15545592 0.031643502
0.45106828 -0.15329887 0.032110222
0.45541072 -0.28781995 0.033704337
0.4552246 -0.28526139 0.033343248
0.45522285 -0.28272361 0.032177251
0.44839844 -0.16027343 0.031268388
0.44822547 -0.15782574 0.03142374
0.4483501 -0.15551929 0.032109693
0.44894934 -0.15387985 0.032173194
0.45362377 -0.2870428 0.033741344
0.45303291 -0.28532884 0.033735085
0.45278096 -0.28282833 0.032959618
0.45226562 -0.28059995 0.032027792
0.44605532 -0.16208909 0.031352911
0.44615182 -0.16039369 0.031328857
0.446114 -0.15798938 0.031882919
0.44621986 -0.15597099 0.032271355
0.45068741 -0.28517383 0.03379466
0.45021272 -0.28292149 0.033340815
0.45001575 -0.28050986 0.03229785
0.44983917 -0.27851111 0.031731457
0.44383487 -0.16262464 0.031217877
0.44353086 -0.16053395 0.031399406
0.44355404 -0.15823631 0.032244999
0.44459525 -0.15635721 0.032318868
0.44814536 -0.28484231 0.03385713
0.44771466 -0.28312185 0.033664685
0.44743326 -0.28058904 0.032821391
0.44747323 -0.27836567 0.031958401
0.44678935 -0.27672559 0.031788789
0.44077727 -0.1650271 0.030528255
0.44125095 -0.16317093 0.030959129
0.44099802 -0.16083449 0.031914275
0.44108519 -0.15888292 0.032443024
0.44545493 -0.28349009 0.033910543
0.44520953 -0.28096005 0.033301268
0.44493362 -0.27844116 0.032526206
0.44460213 -0.27637118 0.03184168
0.4386726 -0.16585636 0.030593999
0.4387874 -0.16338767 0.031476717
0.43884754 -0.16111286 0.032418892
0.43896624 -0.1594639 0.032505997
0.44268054 -0.2857894 0.034012526
0.44284481 -0.28362978 0.033980791
0.44268078 -0.28103602 0.033827107
0.44238853 -0.27852762 0.033010926
0.44226137 -0.27610034 0.032185458
0.44179893 -0.27391246 0.031883977
0.43642738 -0.16827728 0.030683648
0.43630105 -0.16629675 0.031128649
0.43629262 -0.16373101 0.032130118
0.4366501 -0.16159172 0.032593783
0.44030923 -0.28052366 0.034007881
0.43990892 -0.27857623 0.033771325
0.43976131 -0.2759721 0.032678183
0.4395425 -0.27359891 0.031939197
0.43866962 -0.27181691 0.031939458
0.43349519 -0.17101155 0.030795304
0.43399838 -0.1687845 0.031087279
0.43389484 -0.16621302 0.032109112
0.43403232 -0.16390491 0.032691829
0.43795156 -0.27840552 0.034042832
0.43757266 -0.27619779 0.033660948
0.43715611 -0.27370867 0.033003613
0.43691206 -0.2713978 0.032091424
0.43629223 -0.2696811 0.031974718
0.43136075 -0.17338882 0.030881483
0.43148524 -0.1711864 0.031123072
0.43166143 -0.16883267 0.031816166
0.4317469 -0.16649827 0.032784712
0.43579805 -0.27637619 0.034073569
0.43488657 -0.27389437 0.033932567
0.43451902 -0.27143115 0.033210643
0.43418846 -0.26905221 0.032307737
0.433617 -0.26668116 0.032006819
0.42895684 -0.17659774 0.030985283
0.42922214 -0.17409229 0.031160891
0.42911404 -0.17146844 0.03197901
0.42918381 -0.16912393 0.032801934
0.42967302 -0.16744241 0.032851107
0.43268541 -0.27320123 0.034114908
0.43209454 -0.27148727 0.034108654
0.43186599 -0.26885957 0.033234764
0.43177643 -0.26638514 0.032301456
0.43098223 -0.26443344 0.032047424
0.43038642 -0.26270518 0.032041091
0.42599374 -0.1810938 0.031120092
0.42671907 -0.17900148 0.031074524
0.42685398 -0.17677115 0.03132847
0.42683977 -0.17434913 0.031935766
0.42672712 -0.17171156 0.032709748
0.42711782 -0.16976115 0.032947578
0.43032771 -0.27108309 0.03414987
0.42942518 -0.26927638 0.034073643
0.42908329 -0.26682407 0.033556774
0.42910123 -0.26425001 0.032650217
0.42875892 -0.26176363 0.032071829
0.42794833 -0.25944111 0.032063603
0.42387953 -0.18384716 0.031210531
0.42445645 -0.18182755 0.031169746
0.42454597 -0.17910613 0.031799827
0.4242084 -0.17669511 0.032444995
0.42443606 -0.17444602 0.033000469
0.4252429 -0.17198113 0.033024952
0.42747951 -0.26911587 0.03419961
0.42676869 -0.26672792 0.034104571
0.42671841 -0.26432246 0.03365849
0.42643222 -0.26174033 0.03307049
0.42613557 -0.2591486 0.032440927
0.42606553 -0.25715312 0.03208397
0.42546982 -0.25542486 0.032077637
0.42207828 -0.18681009 0.031295404
0.4221825 -0.18453698 0.031445697
0.422079 -0.18206602 0.031922933
0.4221949 -0.17937392 0.032598525
0.42199397 -0.17712462 0.033175502
0.42244059 -0.17549762 0.033143118
0.42506155 -0.2658788 0.034221951
0.42447072 -0.26416481 0.034215681
0.42415506 -0.26204139 0.034096975
0.42370588 -0.25951654 0.033449147
0.4238286 -0.25700539 0.03272434
0.4234128 -0.25450847 0.032262892
0.42256835 -0.25195932 0.03210976
0.42217851 -0.25032061 0.032099176
0.41945034 -0.19162768 0.031425532
0.41994712 -0.18929282 0.031473771
0.41996706 -0.18691389 0.031885657
0.41991237 -0.18451586 0.032232594
0.41972783 -0.18193111 0.033045884
0.41992027 -0.17962244 0.03326162
0.42123246 -0.26421344 0.034301255
0.42146739 -0.26226258 0.034270324
0.4213644 -0.2597177 0.034240711
0.42113167 -0.25712052 0.033880383
0.42095721 -0.25458902 0.033452641
0.42088103 -0.25189608 0.032597836
0.42066556 -0.24964736 0.03224149
0.42013666 -0.24741252 0.032115836
0.41963923 -0.24517611 0.032100465
0.41716963 -0.19929321 0.031582668
0.41742414 -0.19701655 0.031547107
0.41762501 -0.19461569 0.031611387
0.41773406 -0.19210514 0.031931352
0.41736266 -0.18952022 0.032761808
0.41744238 -0.18708766 0.032992661
0.41743457 -0.18481091 0.033392705
0.41803712 -0.18261594 0.03334903
0.41960043 -0.26168239 0.034311943
0.41889536 -0.25970024 0.034305274
0.41861376 -0.25724655 0.034281503
0.41856134 -0.25454551 0.034171615
0.41858578 -0.25201315 0.033798929
0.41839206 -0.24977425 0.033525523
0.41801384 -0.24732287 0.033027876
0.41796458 -0.24473806 0.032567628
0.41757971 -0.24234717 0.032391421
0.41747588 -0.24001147 0.03209167
0.41695824 -0.23739897 0.032072052
0.41683674 -0.23514242 0.032046601
0.41548049 -0.20994444 0.031762213
0.41533878 -0.20731182 0.031732518
0.41557312 -0.20465907 0.03169271
0.41549683 -0.20213942 0.031862777
0.41548312 -0.19975643 0.031966262
0.41531038 -0.19718589 0.032374289
0.41548321 -0.19470122 0.032835852
0.41539332 -0.1922521 0.033207275
0.41515154 -0.18989396 0.033433773
0.41540894 -0.18728265 0.033477243
0.41712222 -0.25732636 0.034321647
0.4169817 -0.2547155 0.034292176
0.41684121 -0.25210464 0.034262717
0.41634786 -0.24988671 0.034247499
0.41583443 -0.2472958 0.034228068
0.4155938 -0.24468163 0.033867702
0.41540563 -0.24243604 0.033621833
0.41539273 -0.23986101 0.033011451
0.41529262 -0.23725338 0.032575667
0.4150902 -0.234892 0.032589454
0.41481736 -0.23251808 0.032374062
0.41480657 -0.22991291 0.032233514
0.41415578 -0.22736529 0.032018192
0.41403431 -0.22510876 0.031992741
0.4138926 -0.22247614 0.031962998
0.41375092 -0.21984351 0.031933315
0.41357744 -0.21745333 0.032007553
0.41383836 -0.21476726 0.032097418
0.41380048 -0.21233742 0.032086775
0.41366035 -0.20992403 0.0323814
0.41369194 -0.20731626 0.032204561
0.4135257 -0.20489639 0.032416396
0.41333356 -0.20244905 0.032723825
0.41314659 -0.19984026 0.033251408
0.41311842 -0.19729945 0.033581141
0.4130038 -0.19470547 0.033634588
0.4131453 -0.19270293 0.033605449
0.41354883 -0.19093575 0.033572417
0.41420245 -0.24476476 0.034238752
0.41354355 -0.24244882 0.034226626
0.41297686 -0.23986076 0.034208633
0.41260445 -0.23735487 0.033936478
0.41248387 -0.23511466 0.033911206
0.41226429 -0.23248594 0.033633463
0.41207021 -0.22985749 0.033438448
0.41192281 -0.22760694 0.033330377
0.41190764 -0.22496954 0.033190113
0.41164088 -0.22236888 0.033271272
0.41152006 -0.22012399 0.033245932
0.41139922 -0.21751292 0.033278488
0.41131875 -0.2149193 0.033435248
0.41119805 -0.21267675 0.033409908
0.41105726 -0.21006045 0.033380419
0.41099674 -0.2074853 0.03359941
0.41092929 -0.20527437 0.033739835
0.41107807 -0.20275001 0.033787239
0.41104764 -0.20004694 0.033753723
0.41098037 -0.19753416 0.033723578
0.41113946 -0.19480525 0.033684757
0.41141191 -0.19292039 0.033653684
0.41069743 -0.2352269 0.034209594
0.40914869 -0.22034757 0.034061298
0.40900818 -0.21773671 0.034031842
0.4088676 -0.21512584 0.034002371
0.408966 -0.2129831 0.033972595
0.40866899 -0.21017173 0.033944689
0.4084661 -0.20766622 0.033918198
0.40851888 -0.20586792 0.03389398
0.54175794 -0.24013218 0.027832232
0.54179513 -0.2380093 0.027804319
0.54189152 -0.23558027 0.027770933
0.54204762 -0.23320484 0.027736677
0.54200482 -0.23065069 0.027705375
0.54186255 -0.22800718 0.02767555
0.54211807 -0.22572112 0.027639803
0.5419758 -0.22307763 0.027609978
0.54183352 -0.22043411 0.027580136
0.54171157 -0.21816826 0.027554572
0.54158962 -0.21590239 0.027529009
0.54144734 -0.21325889 0.027499169
0.54130507 -0.2106154 0.027469344
0.54108387 -0.2084237 0.027447315
0.54066324 -0.20572624 0.027424093
0.54043174 -0.20318219 0.027397877
0.54002148 -0.20083708 0.027378859
0.53954238 -0.19896907 0.027367711
0.53975695 -0.24516279 0.027948607
0.54018885 -0.24313781 0.027911566
0.54028839 -0.2409683 0.027881416
0.54014611 -0.23832479 0.027851576
0.54000384 -0.2356813 0.027821749
0.53988189 -0.23341542 0.027796187
0.53973955 -0.23077193 0.027766332
0.53962028 -0.22811946 0.027624629
0.53952134 -0.22584359 0.02748717
0.53933311 -0.22321907 0.027681103
0.53919083 -0.22057556 0.027651291
0.53906882 -0.2183097 0.027625713
0.53894693 -0.21604384 0.027600149
0.53880453 -0.21340033 0.027570294
0.53866225 -0.21075684 0.027540484
0.53854036 -0.20849097 0.027514905
0.53839809 -0.20584747 0.027485065
0.53825581 -0.20320398 0.02745524
0.5381338 -0.20093811 0.027429676
0.53799152 -0.19829461 0.027399821
0.53763932 -0.19577055 0.027377019
0.53699255 -0.1938033 0.027369017
0.53806549 -0.24790443 0.028027793
0.53826714 -0.24562126 0.02799353
0.53814512 -0.24335539 0.02796795
0.53802323 -0.24108954 0.027942386
0.53789753 -0.23844272 0.027828695
0.53785008 -0.23577657 0.027323656
0.5377503 -0.23349971 0.027186211
0.5376758 -0.23082677 0.026820794
0.5363372 -0.20609085 0.026942004
0.53598946 -0.20355593 0.027246324
0.53586859 -0.20105934 0.027490648
0.53572631 -0.19841585 0.027460791
0.53558403 -0.19577233 0.027430983
0.53546202 -0.19350648 0.027405404
0.53510195 -0.19150585 0.027389444
0.53497952 -0.25488675 0.028197404
0.53507692 -0.25317726 0.028173147
0.53567833 -0.25098631 0.028129563
0.53577846 -0.24840629 0.028031638
0.53570366 -0.24576035 0.027645692
0.5356462 -0.243486 0.027284861
0.53552383 -0.24121314 0.027259216
0.53541803 -0.23855463 0.02704066
0.53291523 -0.19597048 0.027195681
0.53281927 -0.19364792 0.027476529
0.53267699 -0.19100441 0.027446689
0.53231227 -0.18844856 0.027423821
0.5316577 -0.18613547 0.027411608
0.53135711 -0.18406853 0.027393244
0.53314221 -0.25826743 0.028288526
0.53345621 -0.2560012 0.028251525
0.53338814 -0.25345701 0.028221024
0.53328621 -0.25119272 0.028083766
0.53326088 -0.24855146 0.027411751
0.5331645 -0.24589951 0.027130507
0.53304201 -0.24362433 0.02710483
0.5300765 -0.19108929 0.027265878
0.52989197 -0.18850236 0.027488004
0.52977002 -0.1862365 0.027462427
0.52964801 -0.18397063 0.027436862
0.52936286 -0.18148626 0.027412796
0.52862871 -0.17910168 0.027401766
0.53111124 -0.26039603 0.028368842
0.53140748 -0.25886527 0.028341645
0.53130853 -0.25623032 0.028060663
0.53125846 -0.2535989 0.02750057
0.53117573 -0.25133002 0.027251642
0.5310328 -0.24867564 0.027221689
0.53088993 -0.24602126 0.027191721
0.5275048 -0.18635774 0.027523397
0.52738285 -0.18409188 0.027497832
0.52724051 -0.18144837 0.027467977
0.52709824 -0.17880487 0.027438167
0.5266394 -0.17731449 0.027431265
0.52859044 -0.26280335 0.028465547
0.52916473 -0.261163 0.028429642
0.52900326 -0.25892368 0.028305413
0.52877676 -0.25639892 0.027441466
0.5286445 -0.25374722 0.027348746
0.52852207 -0.25147206 0.027323071
0.5283792 -0.24881767 0.027293118
0.52485067 -0.18403956 0.02681328
0.52472574 -0.18157232 0.027202044
0.52483308 -0.1789261 0.027499124
0.5247314 -0.17703789 0.027477805
0.525998 -0.26622444 0.028576992
0.52654952 -0.26384485 0.028532313
0.52664679 -0.26140344 0.02833201
0.52651238 -0.25923812 0.027747219
0.52613378 -0.25654364 0.027450128
0.5259909 -0.25388926 0.027420159
0.52586842 -0.25161406 0.027394485
0.52224207 -0.18170932 0.026702065
0.52217656 -0.17928217 0.027239839
0.52206832 -0.17680168 0.02754467
0.52109253 -0.1750865 0.027548499
0.52385467 -0.26861152 0.028663527
0.52426326 -0.26682225 0.028630111
0.52418113 -0.2642073 0.02818222
0.5241245 -0.26159495 0.027566956
0.52400208 -0.25931975 0.02754128
0.5238592 -0.25666538 0.027511343
0.52371633 -0.25401098 0.027481375
0.51968467 -0.17933263 0.026722325
0.51945311 -0.17687941 0.027391959
0.51922017 -0.17440629 0.027588982
0.51840621 -0.17207417 0.027580716
0.52144623 -0.27076033 0.028753998
0.52212 -0.26920936 0.028716646
0.52178061 -0.26692602 0.028241809
0.52161378 -0.26439133 0.027668353
0.5214709 -0.26173696 0.0276384
0.52134842 -0.25946179 0.027612723
0.5215317 -0.25698009 0.027576404
0.51689899 -0.17679673 0.02667984
0.51684058 -0.1744561 0.027366189
0.51687574 -0.17177737 0.027617117
0.5163089 -0.16968679 0.027605452
0.51591742 -0.16804133 0.027594803
0.51941377 -0.27168968 0.028819125
0.51950812 -0.2693733 0.028537134
0.51924556 -0.26724693 0.027866758
0.51896018 -0.26453337 0.027739767
0.51881731 -0.261879 0.027709799
0.51881474 -0.25981468 0.027683649
0.51424539 -0.17693877 0.026751239
0.51435924 -0.17433259 0.027022978
0.51415998 -0.17201638 0.027614422
0.51411104 -0.16965294 0.027662663
0.51384622 -0.16754621 0.027642874
0.51689976 -0.27422288 0.02891724
0.51699591 -0.27215219 0.028721679
0.51695091 -0.26958469 0.027856611
0.51682848 -0.26730949 0.027830934
0.51668561 -0.26465511 0.027800981
0.51654273 -0.26200074 0.027771015
0.51684022 -0.26046365 0.027743664
0.51184845 -0.17478532 0.026786778
0.51169741 -0.17215692 0.026840746
0.51147842 -0.16975944 0.027621908
0.51132601 -0.16715088 0.027703963
0.51046932 -0.16530308 0.027702969
0.51418006 -0.27645147 0.029016884
0.51485384 -0.27490047 0.028979532
0.51476532 -0.27230734 0.028448712
0.51467633 -0.26970643 0.027917827
0.5145539 -0.26743123 0.02789215
0.51441103 -0.26477686 0.027862214
0.51453453 -0.26236174 0.027828267
0.509431 -0.17225267 0.026818056
0.50927836 -0.16963391 0.026899952
0.50908816 -0.16716355 0.027429365
0.50870854 -0.16474806 0.027742116
0.51217383 -0.27716482 0.029078586
0.51221102 -0.27504194 0.029050644
0.51232153 -0.27263013 0.028632341
0.51230854 -0.26966414 0.027979396
0.51227939 -0.26755294 0.027953366
0.51248187 -0.2652604 0.027918946
0.50677735 -0.17239469 0.026889484
0.50663453 -0.1697403 0.026859531
0.50651205 -0.16746514 0.026833855
0.50646478 -0.16509488 0.026881944
0.50571209 -0.16360012 0.027055819
0.509547 -0.27947679 0.029176846
0.50969023 -0.27744922 0.029147362
0.50956827 -0.27518338 0.029121783
0.50948697 -0.27367279 0.029104726
0.50398082 -0.16988233 0.02693093
0.50385839 -0.16760716 0.026905254
0.5037359 -0.16533197 0.026879579
0.50351101 -0.16301365 0.027156163
0.50261366 -0.16004254 0.027842265
0.50725073 -0.28136712 0.029261095
0.50754696 -0.27983633 0.029233897
0.5074333 -0.27758411 0.029097099
0.50727463 -0.27511719 0.028453546
0.50704831 -0.27312842 0.028411468
0.50158387 -0.16772889 0.026966469
0.50144798 -0.16533609 0.027039699
0.50128025 -0.16291684 0.027549975
0.50110352 -0.16012339 0.027882911
0.50072306 -0.15774511 0.027862692
0.50536311 -0.28146812 0.029311897
0.50528175 -0.27995756 0.029294869
0.50493014 -0.27772844 0.0285482
0.50470626 -0.2751838 0.02824894
0.50456339 -0.27252942 0.028218988
0.50334448 -0.27107349 0.028232444
0.49893025 -0.16787092 0.027037913
0.49880776 -0.16559573 0.027012236
0.49865085 -0.16304979 0.027296633
0.49854758 -0.16026527 0.027751688
0.498696 -0.15760112 0.027914058
0.4978596 -0.15613097 0.027917325
0.5027203 -0.28160957 0.029383022
0.502639 -0.280099 0.029365979
0.50233907 -0.27802199 0.028547142
0.50205266 -0.2753258 0.028320368
0.50190979 -0.27267143 0.0282904
0.50182813 -0.27115464 0.028273249
0.49615413 -0.16573776 0.02708365
0.49601126 -0.16308337 0.027053697
0.49600828 -0.16030535 0.027118532
0.49600369 -0.15792793 0.027655344
0.49573728 -0.15609303 0.027972534
0.49994278 -0.28206122 0.029461637
0.49999622 -0.28024045 0.029437121
0.49992096 -0.27810192 0.028411523
0.49977809 -0.27544755 0.028381582
0.49963522 -0.27279317 0.028351616
0.49443799 -0.16563947 0.027127393
0.49373671 -0.16320512 0.027114928
0.49359384 -0.16055073 0.027084947
0.49344599 -0.15798885 0.027306411
0.49330884 -0.1559958 0.028034991
0.4977535 -0.28253821 0.029525116
0.49774742 -0.28042164 0.029053751
0.49764642 -0.27822366 0.028472736
0.49750355 -0.27556929 0.0284428
0.49738106 -0.27329409 0.028417094
0.49144176 -0.16294765 0.027171822
0.49099967 -0.16038534 0.027150886
0.49119678 -0.15839727 0.027120501
0.49104628 -0.15602466 0.027844617
0.4953095 -0.28269482 0.029591231
0.4951022 -0.28057095 0.029069491
0.49499273 -0.2783657 0.02854418
0.49524936 -0.27607024 0.028508293
0.49588513 -0.27375448 0.028462175
0.48868102 -0.16302627 0.027245291
0.48866567 -0.16081449 0.027217604
0.48845017 -0.15848379 0.027347561
0.48847288 -0.15605548 0.027829152
0.48792166 -0.15439047 0.028155938
0.49304375 -0.28237998 0.029646667
0.49244547 -0.28064457 0.029640343
0.49233496 -0.27846467 0.028948601
0.49263659 -0.27697065 0.02858823
0.48613447 -0.1632317 0.027314693
0.48599741 -0.16075575 0.027787035
0.48585969 -0.15828812 0.028259546
0.48573777 -0.15602227 0.028233968
0.48548916 -0.15421766 0.028217575
0.49091497 -0.28034776 0.029676713
0.49083373 -0.27883717 0.02965967
0.4839496 -0.16325358 0.027372288
0.48372698 -0.16087753 0.027848151
0.48359451 -0.15840936 0.028320502
0.48347253 -0.15614349 0.028294938
0.48352602 -0.15432273 0.028270422
0.48636422 -0.28021258 0.02979438
0.48628294 -0.27870202 0.029777337
0.48620164 -0.27719143 0.029760294
0.48143181 -0.16297635 0.027434807
0.48116702 -0.16112648 0.027495241
0.48098555 -0.1587922 0.02777816
0.4807286 -0.15645407 0.02822794
0.48074847 -0.15477437 0.028349005
0.4848744 -0.28067106 0.029839288
0.48498368 -0.27897206 0.02910025
0.48543385 -0.27735615 0.028782088
0.47890845 -0.16082966 0.027473731
0.47830772 -0.15908712 0.0274674
0.47818616 -0.15661995 0.027939465
0.47810569 -0.15491581 0.028420132
0.48197609 -0.28309858 0.029946148
0.48223647 -0.28103563 0.029663026
0.48328173 -0.27975306 0.028868981
0.47535664 -0.16076621 0.027566101
0.47603315 -0.15920886 0.027528616
0.47592086 -0.1567722 0.028084174
0.47659558 -0.15499663 0.028460778
0.48010871 -0.28357726 0.030001223
0.4802458 -0.28190351 0.02997639
0.47376114 -0.16139489 0.027615981
0.47375861 -0.15933059 0.027589832
0.47335863 -0.15691401 0.028369956
0.47746593 -0.28371868 0.030072365
0.4771857 -0.28202939 0.030058246
0.47173369 -0.16126436 0.027667489
0.47120467 -0.15939814 0.02765771
0.47072068 -0.15700549 0.027870867
0.47104478 -0.15504125 0.028606962
0.47520074 -0.28383994 0.030133337
0.47498947 -0.28167352 0.030111348
0.47424239 -0.28010389 0.030111022
0.46916872 -0.15881567 0.027703678
0.46908706 -0.15729889 0.027686557
0.47293553 -0.28396118 0.030194292
0.47281355 -0.28169531 0.030168727
0.47271192 -0.27980709 0.030147409
0.4711152 -0.28390712 0.030241365
0.47080678 -0.28192896 0.030224323
0.46458903 -0.28365043 0.030409301
0.4646863 -0.28194091 0.030385043
0.46442646 -0.28062928 0.030375216
0.4630034 -0.28701761 0.030493654
0.46259472 -0.28478512 0.030476034
0.46262002 -0.28224087 0.030443061
0.46239883 -0.28004918 0.030421045
0.46155369 -0.27790466 0.030416001
0.46011958 -0.28502584 0.030544026
0.4599773 -0.28238231 0.030514199
0.45985532 -0.28011644 0.030488636
0.45973334 -0.2778506 0.030463072
0.45965207 -0.27634004 0.030446
0.45795017 -0.2822383 0.030565538
0.45759013 -0.28023767 0.030549608
0.45746815 -0.27797183 0.030524028
0.45736653 -0.27608362 0.03050271
0.45494735 -0.28037915 0.030620718
0.45482537 -0.27811328 0.030595154
0.4544799 -0.27569264 0.030496512
0.45278087 -0.27999011 0.030672617
0.45218265 -0.27825472 0.030666294
0.45201477 -0.27563033 0.030470621
0.45181555 -0.27361578 0.029866671
0.45039368 -0.2778455 0.030708009
0.44972214 -0.27577052 0.030365819
0.44934559 -0.27365935 0.029681932
0.44304058 -0.16781989 0.028503468
0.44334096 -0.16594574 0.028596871
0.44350162 -0.16382879 0.028840851
0.44757318 -0.27562305 0.030753803
0.44721738 -0.27330559 0.029844448
0.44662899 -0.27121878 0.029722212
0.44088849 -0.1702168 0.028590374
0.44140467 -0.16845199 0.028665591
0.44162631 -0.16614084 0.029246852
0.44226867 -0.16440849 0.029480837
0.4450714 -0.2751005 0.030812791
0.44468069 -0.27337813 0.030551061
0.44443753 -0.27117625 0.029862558
0.44376159 -0.26950881 0.029775713
0.43819839 -0.17321296 0.028698985
0.43885142 -0.17092364 0.028736189
0.4390856 -0.16853698 0.029216599
0.43954891 -0.16663708 0.029580496
0.44232026 -0.27322784 0.030861188
0.44189692 -0.27125967 0.03051383
0.44156224 -0.26877952 0.029824201
0.44076535 -0.266817 0.02982014
0.43662515 -0.17576905 0.028772742
0.43657476 -0.17359425 0.029079909
0.43652073 -0.17107454 0.029466171
0.43660676 -0.1689533 0.029687095
0.44053128 -0.27281862 0.030902918
0.43978423 -0.271249 0.030902591
0.43941844 -0.2687631 0.030213688
0.43911853 -0.26623964 0.029856045
0.43836838 -0.26466355 0.02985568
0.43389887 -0.1777333 0.029869616
0.43454832 -0.17615025 0.029721305
0.43445069 -0.17391646 0.029806685
0.43449202 -0.17155769 0.029775653
0.43814412 -0.27067399 0.030938324
0.43708622 -0.2686387 0.030863281
0.43666235 -0.26624176 0.030420704
0.4367215 -0.26408619 0.029891584
0.43597132 -0.26251012 0.029891234
0.43232095 -0.18056288 0.028946495
0.43174914 -0.1784375 0.029934956
0.43192992 -0.17632377 0.029903375
0.43211061 -0.17421004 0.029871807
0.43285921 -0.17248672 0.029830273
0.43496117 -0.26781449 0.030985519
0.43433475 -0.26622489 0.030981764
0.4342702 -0.26409271 0.030456178
0.43387428 -0.26158643 0.030006006
0.43293425 -0.25905991 0.029927095
0.42883623 -0.18645373 0.029112712
0.42931214 -0.18399441 0.029069033
0.42941064 -0.18157379 0.029369177
0.42951357 -0.17914732 0.029848687
0.4297483 -0.17659202 0.029964026
0.43197578 -0.26393446 0.031014573
0.43155679 -0.26156563 0.03082874
0.43124458 -0.25895581 0.030081294
0.4308849 -0.25680637 0.029952273
0.43025589 -0.25521022 0.02994848
0.42678612 -0.19074664 0.029221002
0.42719638 -0.18895 0.029187448
0.42734024 -0.1869141 0.02915784
0.42726082 -0.18432492 0.029377161
0.42730644 -0.18187344 0.030095134
0.42744976 -0.17984588 0.030065622
0.42986593 -0.26108068 0.031033693
0.42903277 -0.25896648 0.03102871
0.42858717 -0.25680467 0.03059609
0.4285199 -0.25435066 0.030066526
0.42779762 -0.25191918 0.02997119
0.42490041 -0.19338283 0.029303947
0.42521077 -0.19149646 0.029271882
0.424981 -0.18932183 0.029523147
0.42486352 -0.18686296 0.029972468
0.42489234 -0.18434392 0.030189829
0.42557174 -0.18247128 0.030148223
0.42652184 -0.25639927 0.031061973
0.42619997 -0.25411195 0.030755535
0.42594686 -0.25163612 0.030266291
0.42553595 -0.24945426 0.029999256
0.42481101 -0.24728736 0.029990748
0.42439753 -0.24525593 0.029975787
