# .PCD v0.7 - Point Cloud Data file format
VERSION 0.7
FIELDS x y z
SIZE 4 4 4
TYPE F F F
COUNT 1 1 1
WIDTH 1407
HEIGHT 1
VIEWPOINT 0 0 0 1 0 0 0
POINTS 1407
DATA ascii
0.17921993 -0.053637546 0.28366667
0.18100214 -0.054099467 0.28300002
0.011462309 -0.051196456 0.28400001
0.013672432 -0.051196456 0.28400001
0.17951465 -0.051576838 0.2836667
0.18083051 -0.051391609 0.28325
0.0094732009 -0.048765324 0.28400001
0.011462309 -0.048986334 0.28400001
0.013230409 -0.048986334 0.28400001
0.18119968 -0.049870383 0.28400001
0.0070172707 -0.045290105 0.28300002
0.0087791421 -0.046171043 0.28300002
0.011440925 -0.046243895 0.28344443
0.013230409 -0.046334188 0.28400001
0.0067970362 -0.043308001 0.28300002
0.008779143 -0.043528233 0.28300002
0.01142678 -0.043545671 0.28311113
0.013795962 -0.043900341 0.28350002
0.18196861 -0.043467421 0.28342858
0.18379176 -0.043234587 0.28300002
0.18628776 -0.042647298 0.28300002
0.18804961 -0.042647298 0.28300002
0.0065768026 -0.04088543 0.28300002
0.0087791421 -0.040885426 0.28300002
0.011421951 -0.04088543 0.28300002
0.013183822 -0.04088543 0.28300002
0.18173911 -0.041135106 0.28385717
0.18388219 -0.040831324 0.28318182
0.18628776 -0.04088543 0.28300002
0.18804961 -0.04088543 0.28300002
0.0065768026 -0.038683087 0.28300002
0.0087848315 -0.038705606 0.28316668
0.011442131 -0.038750652 0.28349999
0.013207115 -0.038750652 0.28350002
0.18178904 -0.038967118 0.28400001
0.183806 -0.038717259 0.28325
0.18628776 -0.038683087 0.28300002
0.18849009 -0.038683083 0.28300002
0.006821054 -0.036830664 0.28400001
0.0088101635 -0.03660965 0.28400001
0.010578261 -0.037051678 0.28400001
0.18208373 -0.03660965 0.28400001
0.18391387 -0.036534198 0.28341666
0.18628776 -0.036480743 0.28300002
0.18849009 -0.037361681 0.28300002
0.19025198 -0.037361681 0.28300002
0.006821054 -0.033736497 0.28400001
0.0086838705 -0.033957507 0.28400001
0.18396783 -0.033897724 0.28349999
0.18628776 -0.033837941 0.28300002
0.18760915 -0.03339747 0.28300002
0.0062685232 -0.031194855 0.28400001
0.0085154809 -0.031600047 0.28400001
0.18413047 -0.031277806 0.28375
0.18628776 -0.031195132 0.28300002
0.18849009 -0.03119513 0.28300002
0.19025199 -0.031195128 0.28300002
0.18429385 -0.028653212 0.28400001
0.18621108 -0.028608024 0.2835556
0.18849009 -0.02855232 0.28300002
0.19025198 -0.028992791 0.28300002
0.18429385 -0.026001066 0.28400001
0.18650399 -0.026001066 0.28400001
0.18880795 -0.026113836 0.28385717
0.18402866 -0.02370254 0.28400001
0.18628459 -0.023763537 0.2836667
0.18838185 -0.023749838 0.28350002
0.18176316 -0.020881349 0.28350002
0.18400019 -0.0216134 0.28336364
0.18628776 -0.021504834 0.28300002
0.18849009 -0.021945303 0.28300002
0.18165228 -0.01900469 0.28350002
0.18397364 -0.018780287 0.28310001
0.18628776 -0.018862026 0.28300002
0.18849009 -0.017981092 0.28300002
0.19025198 -0.017981092 0.28300002
0.18208373 -0.017160578 0.28400001
0.18399534 -0.016340701 0.28372726
0.18619236 -0.016101113 0.28314286
0.18837997 -0.016329337 0.28300002
0.19025198 -0.017100155 0.28300002
0.18429385 -0.013624382 0.28400001
0.18650399 -0.013624383 0.28400001
0.18827207 -0.014066407 0.28400001
0.18429595 -0.010767542 0.2837778
0.18638042 -0.011077342 0.28342858
0.18760915 -0.010933601 0.28300002
0.18396784 -0.0087466883 0.28350002
0.18628776 -0.0087312618 0.28300002
0.18804961 -0.0087312618 0.28300002
0.18208373 -0.0065519921 0.28400001
0.18396783 -0.0065404568 0.28349999
0.18628776 -0.0065289219 0.28300002
0.18849009 -0.0065289228 0.28300002
0.18216366 -0.003896306 0.2836667
0.18388219 -0.0039689788 0.28318182
0.18628776 -0.0038861141 0.28300002
0.18804961 -0.0038861136 0.28300002
0.18182902 -0.0012464481 0.28383335
0.18388219 -0.0011637368 0.28318182
0.18628776 -0.0012433057 0.28300002
0.18782938 -0.0014635398 0.28300002
0.1816417 0.0014044474 0.28400001
0.18383351 0.0013154928 0.28369999
0.18593255 0.0012259155 0.2834
0.18208373 0.0036145695 0.28400001
0.18397813 0.0038040082 0.28400001
0.18561994 0.003172545 0.28400001
0.17677945 0.016875301 0.28400001
0.17854753 0.016433276 0.28400001
0.18031563 0.015991252 0.28400001
0.17677945 0.018201374 0.28400001
0.17854755 0.018201374 0.28400001
0.082032025 -0.1077115 0.28500003
0.083806351 -0.1077115 0.28500003
0.086246051 -0.10793329 0.28500003
0.088685744 -0.10815508 0.28500006
0.091169789 -0.1082438 0.28500003
0.093728505 -0.10834404 0.28550005
0.096162111 -0.10829313 0.28560001
0.098617226 -0.10834405 0.28550005
0.10128338 -0.10834405 0.28550002
0.10376749 -0.10815508 0.28500006
0.10625154 -0.10806637 0.28500003
0.10909047 -0.1077115 0.28500003
0.11130837 -0.1077115 0.28500003
0.11263911 -0.1077115 0.28500003
0.071386084 -0.10505001 0.28500003
0.073825777 -0.1052718 0.28500003
0.076506898 -0.10584166 0.28542861
0.07879173 -0.10622232 0.28542861
0.081249051 -0.10626585 0.28588891
0.083839677 -0.10628896 0.28625
0.086289883 -0.1065123 0.28625003
0.088802844 -0.10643175 0.28633332
0.091258988 -0.10644586 0.28671429
0.093666106 -0.10655564 0.28666663
0.096343167 -0.10655565 0.28666663
0.098732062 -0.10664757 0.28657144
0.10110167 -0.10655565 0.28666663
0.10353269 -0.10638228 0.28649998
0.10603558 -0.10643174 0.28633332
0.10864618 -0.10628547 0.28570002
0.11126743 -0.10610389 0.28575
0.11374722 -0.10614265 0.28555557
0.11617839 -0.10591843 0.28525004
0.1186718 -0.10540488 0.28500003
0.12106715 -0.10505001 0.28500003
0.066728495 -0.10349748 0.28500003
0.068671845 -0.10335469 0.28557143
0.071136445 -0.10355616 0.28577781
0.073815137 -0.10383916 0.28625
0.076253623 -0.10386337 0.286625
0.078587435 -0.10414932 0.28699997
0.081267603 -0.10489381 0.287
0.083947755 -0.10489381 0.287
0.086181238 -0.10489381 0.287
0.088414699 -0.10489381 0.287
0.10092213 -0.10489381 0.287
0.10360229 -0.10489381 0.287
0.10628244 -0.10444712 0.28699997
0.10896262 -0.10444712 0.28699997
0.11119607 -0.10400043 0.28699997
0.11352824 -0.10401666 0.28679997
0.11639303 -0.10385454 0.28659999
0.11892381 -0.1037271 0.28625003
0.1213211 -0.10349218 0.28560004
0.12372392 -0.10330292 0.28542858
0.12594654 -0.10327569 0.28500003
0.061551522 -0.10058298 0.28533337
0.063979626 -0.10126928 0.28560004
0.066197708 -0.10134001 0.28622222
0.068598777 -0.10152464 0.28685713
0.071261659 -0.10185629 0.287
0.073673815 -0.10221365 0.287
0.075013891 -0.10221365 0.287
0.11700309 -0.10221365 0.287
0.11896855 -0.10185629 0.287
0.1215817 -0.10143194 0.28699997
0.12382185 -0.10125424 0.28650001
0.12625076 -0.10130747 0.28600001
0.12879576 -0.1012041 0.28541669
0.13105004 -0.10082038 0.28516671
0.13304383 -0.10061421 0.28500003
0.054530013 -0.097952724 0.28500003
0.056304336 -0.098396301 0.28500003
0.05886488 -0.098670319 0.28580004
0.061118223 -0.098714627 0.28625
0.063399851 -0.099086791 0.287
0.065633327 -0.099533491 0.287
0.12415019 -0.099533491 0.287
0.12611565 -0.099176131 0.287
0.12870526 -0.098660082 0.28679997
0.13128617 -0.098630048 0.28620002
0.13372004 -0.09878967 0.28550005
0.13641503 -0.098307587 0.28500003
0.049650628 -0.095291235 0.28500003
0.051639091 -0.095712975 0.28520003
0.053982861 -0.096276082 0.28562501
0.056174356 -0.096271031 0.28659996
0.058535121 -0.096785203 0.2868
0.13129731 -0.096853323 0.287
0.1340719 -0.096479841 0.28677776
0.13633372 -0.096347459 0.28616667
0.13857558 -0.096001364 0.28580004
0.14090155 -0.095924921 0.28500006
0.14324619 -0.095291235 0.28500003
0.046323769 -0.092851542 0.28500003
0.048960295 -0.093568914 0.28550002
0.051351462 -0.093971319 0.28600001
0.053392589 -0.093969055 0.28683332
0.055359371 -0.094173156 0.287
0.13665761 -0.094173156 0.287
0.13881575 -0.094078526 0.28671429
0.14133264 -0.093852453 0.28627273
0.14385712 -0.09362559 0.28533337
0.14575981 -0.092925467 0.28500003
0.04414475 -0.090934351 0.28525001
0.046246454 -0.091137752 0.28588891
0.0489516 -0.091524206 0.28674999
0.051190227 -0.092088588 0.287
0.052679211 -0.092386387 0.287
0.1413479 -0.092163041 0.287
0.14369303 -0.091421463 0.28677776
0.14620374 -0.091196343 0.28581819
0.14794031 -0.090569682 0.28550002
0.041553251 -0.088202685 0.28575003
0.043513115 -0.088825151 0.28600001
0.046127703 -0.089110635 0.28699997
0.14469811 -0.08970622 0.287
0.14653237 -0.088885441 0.28687498
0.14882611 -0.088748917 0.28569233
0.15091854 -0.08827053 0.28525001
0.037230361 -0.085532457 0.28500003
0.038854625 -0.086302206 0.28520003
0.041001931 -0.085998259 0.28655553
0.043521989 -0.086802714 0.287
0.14737828 -0.087026067 0.287
0.14886723 -0.086728275 0.287
0.15106587 -0.086265892 0.28630769
0.15317012 -0.0860404 0.28542861
0.15522288 -0.085532457 0.28500003
0.036741201 -0.083570436 0.28550002
0.038710125 -0.083963804 0.28657144
0.040618479 -0.0843459 0.287
0.1518452 -0.0843459 0.287
0.1538911 -0.083843336 0.28646153
0.15583561 -0.08337491 0.28542858
0.033997651 -0.080847837 0.28516671
0.03639248 -0.081339881 0.28625
0.038385011 -0.081665739 0.287
0.15452537 -0.081665739 0.287
0.15624444 -0.081475005 0.28633335
0.15831311 -0.080869883 0.28537503
0.03157492 -0.078312144 0.28520003
0.033827193 -0.078770489 0.28622225
0.036002647 -0.079581171 0.287
0.15690774 -0.079581171 0.287
0.15872593 -0.078853503 0.28619999
0.16097808 -0.0782049 0.28537503
0.029348522 -0.075149275 0.28600001
0.031154295 -0.076097585 0.28622222
0.033322483 -0.076901004 0.287
0.15952833 -0.076484099 0.287
0.16143119 -0.076119907 0.28600001
0.16334972 -0.075839363 0.28525001
0.028557749 -0.073923051 0.287
0.030344523 -0.074518643 0.287
0.16142915 -0.073879778 0.28683332
0.16380635 -0.073903978 0.28569233
0.16616453 -0.073407911 0.28500003
0.026187478 -0.070574299 0.28550002
0.027664362 -0.070498392 0.287
0.16383263 -0.071439303 0.28642854
0.1660915 -0.071179129 0.28555557
0.16793887 -0.070746429 0.28500003
0.024610071 -0.068514057 0.28525001
0.026263654 -0.068997152 0.28633335
0.027664362 -0.069158316 0.287
0.16435263 -0.069158316 0.287
0.16638991 -0.068945095 0.28645456
0.16849294 -0.068595216 0.28512505
0.024155773 -0.06624601 0.28600001
0.026175385 -0.06707374 0.287
0.16688652 -0.067089513 0.28675002
0.16874187 -0.066143975 0.28590912
0.17060034 -0.065423459 0.28500003
0.16911738 -0.064095788 0.28699997
0.17095259 -0.063554756 0.28554547
0.16971296 -0.062011216 0.287
0.1714415 -0.061223701 0.28636363
0.17336486 -0.060959365 0.28533337
0.019077733 -0.058132254 0.28550002
0.021051727 -0.058563709 0.28616667
0.17216976 -0.058661018 0.287
0.17396522 -0.058660403 0.28591669
0.1759233 -0.058326166 0.28500003
0.016825641 -0.05536896 0.28500003
0.018622756 -0.056321912 0.28533337
0.020517264 -0.056650892 0.287
0.17397654 -0.056435678 0.28666666
0.17608173 -0.056206178 0.28550005
0.016200388 -0.053494316 0.2851429
0.018411307 -0.053908531 0.28600001
0.17417987 -0.053970728 0.287
0.17615874 -0.053757403 0.28586668
0.1782891 -0.053594634 0.28500003
0.014164156 -0.050045986 0.28500003
0.015970588 -0.051032085 0.28555557
0.018194456 -0.051469248 0.287
0.17615582 -0.051215854 0.28658333
0.17856607 -0.051012233 0.28544447
0.18050697 -0.050045986 0.28500003
0.014164156 -0.048715245 0.28500003
0.016114624 -0.048573107 0.286125
0.017837102 -0.049057104 0.287
0.17622192 -0.048738036 0.28699997
0.17868705 -0.048613787 0.28654546
0.18103893 -0.048336711 0.28614286
0.014164156 -0.046497341 0.28500003
0.015756907 -0.046323773 0.2862857
0.1766367 -0.04615359 0.287
0.17864683 -0.045930244 0.28699997
0.18122117 -0.046350267 0.28683332
0.17686005 -0.044143472 0.287
0.17889385 -0.043760572 0.28644446
0.180998 -0.043985978 0.28525004
0.17877996 -0.041391075 0.28650001
0.18050696 -0.041174371 0.28500006
0.011946252 -0.037625723 0.28500003
0.013793567 -0.037823752 0.28650001
0.17933066 -0.038738105 0.28666666
0.18099761 -0.038435385 0.28525004
0.011680104 -0.03620626 0.28500003
0.013793566 -0.036040086 0.28650001
0.17933065 -0.036061052 0.28666666
0.1810946 -0.036158781 0.28542858
0.0092847664 -0.034077074 0.28500003
0.01150267 -0.034077078 0.28500006
0.013588245 -0.03382121 0.28533337
0.1793606 -0.033644356 0.28671429
0.18127316 -0.033858992 0.2856667
0.18272488 -0.034077074 0.28500003
0.0094326269 -0.030824149 0.28500003
0.0115075 -0.031427488 0.28511116
0.013533724 -0.031718496 0.28575003
0.17954022 -0.031189356 0.287
0.18120202 -0.031434581 0.28590912
0.18272488 -0.031415593 0.28500003
0.0066232816 -0.028754106 0.28500006
0.0088411858 -0.028754106 0.28500006
0.011539583 -0.028843096 0.28588891
0.013370167 -0.028955886 0.287
0.17954022 -0.028955886 0.287
0.18119116 -0.028863402 0.28608334
0.18316846 -0.028754108 0.28500006
0.0064331749 -0.025965884 0.28500006
0.0088411858 -0.026092621 0.28500006
0.011557522 -0.026214689 0.28633335
0.013370167 -0.026275724 0.287
0.17954022 -0.026275724 0.287
0.18129748 -0.026207061 0.28625003
0.18316847 -0.026092619 0.28500006
0.006290596 -0.02354203 0.28500006
0.0088411858 -0.023431133 0.28500006
0.011526131 -0.023477152 0.2855556
0.013354637 -0.023569196 0.28666666
0.18150835 -0.023561046 0.28658333
0.18310696 -0.0236727 0.28525001
0.0067711421 -0.02136109 0.28500003
0.0088411868 -0.021213232 0.28500006
0.011564768 -0.021026822 0.28650001
0.0067119985 -0.018817896 0.28500003
0.0088515263 -0.019018583 0.28533337
0.011442615 -0.018966967 0.28625003
0.013370166 -0.018681932 0.287
0.006290596 -0.016222946 0.28500006
0.0088411858 -0.016333841 0.28500006
0.011539584 -0.016385475 0.28588891
0.013593512 -0.016225118 0.287
0.18150637 -0.016230293 0.2863
0.18272488 -0.015890261 0.28500003
0.0061797011 -0.013672357 0.28500006
0.0088411858 -0.013672356 0.28500006
0.011517162 -0.013688349 0.28533337
0.013777002 -0.013727807 0.28616667
0.0154708 -0.013907355 0.28619999
0.17954022 -0.012874914 0.287
0.18145543 -0.013744314 0.28650001
0.18316847 -0.013672356 0.28500006
0.0066232816 -0.011010871 0.28500006
0.0088411858 -0.011010871 0.28500006
0.011530614 -0.011036627 0.28566667
0.013816859 -0.011088139 0.28699997
0.17954022 -0.01108814 0.287
0.18113799 -0.011049505 0.28600001
0.18307975 -0.011188304 0.28500003
0.0066232816 -0.0087929666 0.28500003
0.0088411858 -0.0087929666 0.28500006
0.011530615 -0.0088135349 0.2856667
0.013896881 -0.0085807955 0.2868
0.17919514 -0.008403792 0.28685713
0.18123862 -0.0088832239 0.28585717
0.18272488 -0.0087929666 0.28500003
0.0070668627 -0.0070186434 0.28500003
0.0088411858 -0.0065750629 0.28500006
0.011521646 -0.0065849707 0.28544447
0.013699569 -0.0064286836 0.28640002
0.1793984 -0.0063560628 0.28657144
0.18116115 -0.0065827533 0.28533337
0.0091044139 -0.0040437938 0.28528574
0.011543031 -0.0039273095 0.28600001
0.013793568 -0.0039341752 0.28649998
0.01515694 -0.003941041 0.287
0.17919514 -0.0040662615 0.28685713
0.18120202 -0.0038448439 0.28590912
0.18272488 -0.0030264161 0.28500003
0.0095321583 -0.001477178 0.28575003
0.011543031 -0.0012564857 0.28600001
0.013768718 -0.0012564858 0.28600001
0.015594833 -0.0012606656 0.28683332
0.17919318 -0.0011483363 0.286625
0.1808221 -0.0014772469 0.28550002
0.0097283479 0.00052223093 0.28500003
0.011530269 0.0014123437 0.28566667
0.013768718 0.0014143378 0.28600001
0.016007178 0.0014147451 0.28622222
0.17686005 0.0023126705 0.287
0.1786762 0.0014157267 0.28633332
0.18050696 0.0014093927 0.28500006
0.011534754 0.0040823338 0.28577781
0.013768718 0.0040851613 0.28600001
0.01600752 0.0040886817 0.28622222
0.017837102 0.0049928324 0.287
0.17686005 0.004099445 0.287
0.17862435 0.0040887329 0.28625003
0.18095055 0.004070878 0.28500006
0.18361205 0.0049580396 0.28500003
0.011988169 0.0063108476 0.28600001
0.013768718 0.0063108476 0.28600001
0.016014082 0.0063182036 0.28633335
0.018134898 0.0064818114 0.287
0.17631014 0.0064778742 0.28683332
0.17874876 0.0062501868 0.28614286
0.18095057 0.0062887818 0.28500006
0.18361203 0.0062887818 0.28500006
0.012433305 0.0085365335 0.28600001
0.013768718 0.0085365353 0.28600001
0.015994404 0.0085365344 0.28600001
0.018475235 0.0086940089 0.28699997
0.17382254 0.0087450594 0.287
0.17610471 0.0085509401 0.28649998
0.17863557 0.0085229231 0.2855556
0.18095055 0.0085066864 0.28500006
0.18335856 0.0083799493 0.28500006
0.013768718 0.011207358 0.28600001
0.015994404 0.011207358 0.28600001
0.01871668 0.01123749 0.28677776
0.020517264 0.011693237 0.287
0.1723931 0.011693237 0.287
0.17397654 0.011233483 0.28666666
0.17637877 0.011187245 0.28550002
0.17873265 0.011168172 0.28500006
0.18095055 0.011168173 0.28500006
0.18272488 0.010724591 0.28500003
0.014213854 0.012987906 0.28600001
0.016134428 0.013791937 0.28649998
0.018723585 0.013921659 0.28688887
0.020517264 0.013480011 0.287
0.1723931 0.013033318 0.287
0.17394994 0.013963244 0.28609091
0.17639862 0.013745481 0.28510004
0.17873265 0.013829656 0.28500006
0.18069708 0.01370292 0.28500006
0.016943714 0.016160175 0.287
0.16941729 0.017023074 0.28650001
0.17123753 0.016681209 0.28637499
0.17366178 0.016514994 0.28541669
0.17626129 0.016364405 0.28500006
0.018602863 0.018648896 0.28699997
0.021231974 0.018929675 0.287
0.023197426 0.019287029 0.287
0.16734108 0.018774692 0.28600001
0.16857529 0.01834988 0.28633335
0.17090218 0.01877469 0.28600001
0.17356063 0.018725459 0.28525004
0.17633732 0.018797763 0.28500003
0.17873266 0.019152628 0.28500003
0.018842163 0.02096213 0.28699997
0.021402014 0.021065302 0.28688887
0.023969037 0.021175912 0.28687498
0.026324281 0.021967191 0.287
0.16648318 0.021181341 0.28671429
0.16863596 0.021149153 0.28650001
0.17090216 0.021000378 0.28600001
0.173564 0.020880239 0.2854546
0.17618343 0.020822082 0.28528574
0.17828909 0.020039788 0.28500003
0.019555502 0.023226064 0.28600001
0.021336053 0.023671202 0.28600001
0.024006875 0.023671202 0.28600001
0.026263135 0.023697754 0.28633335
0.0278979 0.024293343 0.28633335
0.16435263 0.022860579 0.287
0.16625108 0.023642294 0.28699997
0.16862245 0.023726379 0.28666666
0.17090218 0.023671202 0.28600001
0.173573 0.023671202 0.28600001
0.17535354 0.022780925 0.28600001
0.022003757 0.026119456 0.28600001
0.024006875 0.026342025 0.28600001
0.026232561 0.026342027 0.28600001
0.028409928 0.026511263 0.286625
0.1665861 0.026434129 0.28699997
0.16862245 0.026403427 0.28666666
0.17090216 0.026342023 0.28600001
0.17303883 0.026163971 0.28600001
0.024118159 0.028901564 0.28600001
0.026232561 0.029012846 0.28600001
0.028388811 0.028815562 0.28657144
0.030344523 0.029114291 0.287
0.16613941 0.028667597 0.28699997
0.16872102 0.028651208 0.28683332
0.17110084 0.028601525 0.28633332
0.17268272 0.028122572 0.28600001
0.024984201 0.030901065 0.287
0.026324283 0.031347759 0.287
0.028669422 0.031012736 0.28699997
0.030940117 0.031198859 0.28699997
0.033024687 0.031794451 0.287
0.16122577 0.031794451 0.287
0.16375704 0.031198859 0.28699997
0.16613941 0.030901067 0.28699997
0.16868851 0.030876445 0.28677776
0.17072529 0.030678699 0.28660002
0.026770975 0.032687839 0.287
0.028606845 0.033395648 0.28637499
0.031153606 0.033489536 0.28622222
0.033762082 0.033647858 0.286625
0.15929008 0.033879023 0.28699997
0.16134876 0.033648245 0.286625
0.16371551 0.033397973 0.28619999
0.1664508 0.033464219 0.28600001
0.16852812 0.032870706 0.28600001
0.029051766 0.035541527 0.28600001
0.031256255 0.035880681 0.28600001
0.03382685 0.036163464 0.28622222
0.035928193 0.036484737 0.287
0.15690774 0.036856983 0.287
0.15893039 0.036247004 0.28688887
0.16110915 0.036135044 0.28600001
0.16377997 0.036135044 0.28600001
0.1658573 0.035541527 0.28600001
0.033971436 0.038762812 0.28650001
0.036598235 0.038941555 0.28699997
0.15452537 0.039834939 0.287
0.15642382 0.039053224 0.28699997
0.15856074 0.038835675 0.28622222
0.16110915 0.038805872 0.28600001
0.16311227 0.038583297 0.28600001
0.034811459 0.040728323 0.287
0.036598235 0.040728323 0.287
0.15381065 0.041264363 0.287
0.15631214 0.041175019 0.28699997
0.15856551 0.041222326 0.28600001
0.16093108 0.040942527 0.28600001
0.14871834 0.044301875 0.287
0.15106349 0.04352016 0.28699997
0.15363197 0.043408487 0.28699997
0.15620047 0.043296814 0.28699997
0.15839672 0.042812899 0.287
0.043745335 0.046982035 0.287
0.046425495 0.046982035 0.287
0.14425141 0.046982035 0.287
0.14659657 0.04620032 0.28699997
0.14885768 0.046139322 0.286625
0.15119471 0.045980558 0.28633335
0.1535127 0.045710042 0.28649998
0.15541875 0.045195263 0.287
0.044192031 0.047875427 0.287
0.046425495 0.048322123 0.28699997
0.048510071 0.048471015 0.287
0.14142235 0.049066607 0.28699997
0.14369303 0.048730362 0.28677776
0.14608759 0.048635956 0.28622222
0.1486453 0.048598889 0.28600001
0.15118895 0.048344526 0.28600001
0.15309668 0.047708616 0.28600001
0.13621092 0.052342359 0.287
0.13857202 0.051704228 0.28699997
0.14140552 0.05138896 0.28666666
0.1437488 0.05126971 0.28600001
0.14586322 0.051158424 0.28600001
0.14842273 0.050602008 0.28600001
0.054465983 0.054129139 0.287
0.056252759 0.054129139 0.287
0.058932919 0.053682443 0.28699997
0.061166391 0.054129139 0.287
0.13219069 0.054129139 0.287
0.13415614 0.053771783 0.287
0.13638309 0.053912114 0.2868
0.13858035 0.054065231 0.28666666
0.14112455 0.053682443 0.28699997
0.14291133 0.053235751 0.287
0.056476101 0.055245869 0.287
0.058932919 0.055915911 0.28699997
0.061166391 0.055915911 0.28699997
0.063288182 0.056027588 0.28699997
0.065901339 0.056451946 0.287
0.067866795 0.056809299 0.287
0.12415019 0.056809299 0.287
0.12616031 0.056585953 0.287
0.12861712 0.05636261 0.28699997
0.13129729 0.055915918 0.28699997
0.13397747 0.055915911 0.28699997
0.13621092 0.055469215 0.287
0.13844439 0.055915911 0.287
0.059826307 0.057702683 0.287
0.061166391 0.057702683 0.287
0.063623197 0.057926029 0.287
0.066080019 0.058149379 0.28699997
0.068760186 0.058596067 0.28699997
0.071440339 0.059042767 0.28699997
0.073673815 0.059489463 0.287
0.075907283 0.059489463 0.287
0.078587435 0.059489463 0.287
0.12176784 0.058893871 0.28699997
0.1237035 0.058596075 0.28699997
0.12614076 0.058621038 0.28672725
0.12891191 0.058458924 0.28633335
0.13129024 0.058350891 0.28642854
0.1332273 0.057932425 0.28666666
0.071440339 0.060382847 0.287
0.073673815 0.060382847 0.287
0.075907283 0.060829539 0.28699997
0.078587443 0.060829539 0.28699997
0.08126761 0.061276231 0.28699997
0.083947755 0.061276231 0.28699997
0.086181238 0.061722931 0.287
0.088414699 0.061722931 0.28699997
0.091094874 0.061722931 0.28699997
0.093775027 0.061722931 0.28699997
0.096231841 0.061946273 0.287
0.098241962 0.062169623 0.287
0.12147003 0.060829539 0.28699997
0.12370349 0.060829543 0.287
0.12606552 0.06070561 0.28671429
0.12870374 0.060613967 0.28639999
0.13083982 0.060172454 0.28600001
0.084841155 0.063063011 0.287
0.086181238 0.063063011 0.287
0.088414699 0.063063011 0.287
0.091094874 0.063063011 0.287
0.093775027 0.063063011 0.287
0.096455187 0.063063011 0.287
0.098688662 0.063063011 0.287
0.10092213 0.063063011 0.287
0.091412269 -0.10525931 0.28800002
0.094101779 -0.10525931 0.28800002
0.096343026 -0.10525931 0.28800002
0.098584272 -0.10525931 0.28800002
0.07662002 -0.1025698 0.28800002
0.079040572 -0.1029284 0.28800002
0.081474103 -0.10362288 0.28812504
0.083723925 -0.10349087 0.28842857
0.086132847 -0.10358501 0.28833336
0.088825464 -0.10358502 0.28833336
0.091379166 -0.10366739 0.28825003
0.093910821 -0.10358502 0.28833336
0.096293621 -0.10349087 0.28842857
0.098621972 -0.10350586 0.28811115
0.10127378 -0.1034663 0.28800002
0.10396327 -0.1034663 0.28800002
0.10620452 -0.10301805 0.28800002
0.10844577 -0.10301805 0.28800002
0.11091116 -0.10279392 0.28800002
0.11382478 -0.1025698 0.28800002
0.11606603 -0.1025698 0.28800002
0.069448017 -0.1007768 0.28800002
0.071241021 -0.1007768 0.28800002
0.073567308 -0.10089239 0.28833336
0.076289654 -0.10093128 0.28844446
0.078594528 -0.10100904 0.28866667
0.080934316 -0.10112672 0.289
0.083633155 -0.10157651 0.289
0.086331993 -0.10157653 0.289
0.089030832 -0.10157653 0.289
0.091279864 -0.10157652 0.289
0.093528897 -0.10112672 0.289
0.096227735 -0.10112672 0.289
0.098926581 -0.10112672 0.289
0.10117561 -0.10112671 0.289
0.10356815 -0.10118137 0.28890002
0.10614375 -0.10092601 0.28875002
0.1086968 -0.10100904 0.28866667
0.11139254 -0.10100904 0.2886667
0.11386015 -0.10101931 0.28837499
0.11634926 -0.1008924 0.28833339
0.11860611 -0.10107563 0.28800002
0.12054853 -0.1007768 0.28800002
0.064024165 -0.098154791 0.28820002
0.066515349 -0.098435953 0.28850001
0.068833336 -0.098873839 0.28855556
0.070983611 -0.09895055 0.2887778
0.073737413 -0.098877691 0.289
0.076256327 -0.098967649 0.289
0.078685284 -0.09932749 0.289
0.10342464 -0.099327482 0.289
0.10612348 -0.099327482 0.289
0.10882232 -0.098877691 0.289
0.11152115 -0.098877691 0.289
0.11377019 -0.098877683 0.289
0.1162738 -0.098689228 0.2888889
0.11868725 -0.098660715 0.28872731
0.12117157 -0.098676682 0.28841671
0.12353443 -0.098722473 0.28811112
0.12615165 -0.098311424 0.28800002
0.057345264 -0.095397793 0.28800002
0.058839429 -0.095696628 0.28800002
0.061096609 -0.09626504 0.28825003
0.063674383 -0.096431829 0.28875002
0.066090703 -0.096628644 0.289
0.11916786 -0.096628644 0.289
0.12159683 -0.096268795 0.289
0.12382213 -0.096516155 0.2886667
0.12614506 -0.096460536 0.28850001
0.12897468 -0.096270889 0.28820005
0.13130653 -0.095846042 0.28800002
0.13332365 -0.095621921 0.28800002
0.054356933 -0.093007125 0.28800002
0.056476764 -0.093650781 0.28814286
0.058672134 -0.093754418 0.28885716
0.060962908 -0.094469577 0.289
0.06294205 -0.094829418 0.289
0.12366593 -0.094829418 0.289
0.12609489 -0.09446957 0.289
0.12874234 -0.094186842 0.289
0.13126181 -0.093893357 0.2888889
0.13370165 -0.093712449 0.28833336
0.13612521 -0.093492739 0.28800002
0.13870266 -0.092932418 0.28800002
0.048828512 -0.090018794 0.28800002
0.051197831 -0.090659156 0.28800002
0.053863309 -0.091089636 0.28855559
0.056104995 -0.091410898 0.289
0.057994183 -0.092130587 0.289
0.13153754 -0.091905676 0.289
0.13401149 -0.091230974 0.289
0.1363177 -0.091268413 0.28871426
0.13866994 -0.091040634 0.28840002
0.14104529 -0.090831876 0.28814286
0.14318515 -0.090242915 0.28800002
0.047184933 -0.088524632 0.28800002
0.048913542 -0.08837793 0.28850001
0.05111286 -0.088605903 0.28887501
0.053346183 -0.089131869 0.289
0.13461122 -0.089131869 0.289
0.13626051 -0.088981941 0.289
0.13862202 -0.088644587 0.289
0.1412084 -0.088532142 0.289
0.14363025 -0.088360913 0.28844446
0.14550112 -0.088524632 0.28800002
0.044077061 -0.085894898 0.28800002
0.04635423 -0.086603299 0.28814286
0.048368324 -0.086373053 0.289
0.050347473 -0.086732909 0.289
0.14165819 -0.086732909 0.289
0.14390723 -0.086283095 0.289
0.14626721 -0.086532146 0.28833336
0.14860897 -0.085894898 0.28800002
0.039415255 -0.082846798 0.28800002
0.041357219 -0.083528236 0.28814289
0.044016656 -0.083968766 0.28877777
0.046299212 -0.084483869 0.289
0.047648635 -0.084933676 0.289
0.14435704 -0.084933676 0.289
0.14624622 -0.084213987 0.289
0.14859097 -0.084035985 0.28872731
0.15129478 -0.083608001 0.28822225
0.15327078 -0.082846798 0.28800002
0.038840402 -0.080801345 0.28816667
0.041028142 -0.08158768 0.28883335
0.043150567 -0.082234845 0.289
0.14900504 -0.081934974 0.289
0.15134519 -0.081503533 0.2888889
0.15358165 -0.081046492 0.28837502
0.15536262 -0.08045613 0.28800002
0.036533512 -0.078431539 0.28825
0.038523722 -0.078714438 0.28887501
0.15200374 -0.079535998 0.289
0.15391542 -0.078748837 0.289
0.15605052 -0.078577608 0.28837502
0.15775329 -0.07836429 0.28800002
0.034205373 -0.076166317 0.28816667
0.035938114 -0.076128833 0.28887501
0.037752889 -0.076837167 0.289
0.15434274 -0.076117471 0.289
0.15648285 -0.076063991 0.28880003
0.15838207 -0.076267563 0.28812501
0.028836558 -0.073523186 0.28800002
0.031472813 -0.073801413 0.28812504
0.033591658 -0.073906466 0.28880003
0.03505405 -0.074138321 0.289
0.15668175 -0.073778473 0.289
0.15896766 -0.073865153 0.28837502
0.1606669 -0.073657669 0.28800002
0.029105507 -0.071192287 0.28800002
0.031408265 -0.071329266 0.28855556
0.033254825 -0.071889289 0.289
0.15740143 -0.072339095 0.289
0.15884081 -0.071619406 0.289
0.16112237 -0.07129503 0.28841671
0.1631323 -0.070295788 0.28800002
0.028782148 -0.068420067 0.28812501
0.031155726 -0.069040515 0.289
0.16137925 -0.068935424 0.28887501
0.16369322 -0.068370745 0.28820002
0.16582179 -0.067606285 0.28800002
0.026297161 -0.065739006 0.28833336
0.028440824 -0.066303067 0.28883335
0.030555984 -0.066941418 0.289
0.16189948 -0.066941418 0.289
0.16386996 -0.066060707 0.28872731
0.16611563 -0.06603767 0.28820002
0.1676148 -0.065813288 0.28800002
0.022459468 -0.064242579 0.289
0.023767697 -0.064579681 0.28850001
0.025680665 -0.064197496 0.28880003
0.16429846 -0.063942708 0.289
0.16629331 -0.064045988 0.28862503
0.16821247 -0.063721456 0.28800002
0.022459468 -0.060644127 0.289
0.023359081 -0.060644127 0.289
0.16459833 -0.061993547 0.289
0.16639756 -0.061543737 0.289
0.16864063 -0.061377764 0.28822222
0.1703043 -0.060882539 0.28800002
0.022134731 -0.058178324 0.2886667
0.023359081 -0.058844905 0.289
0.16669743 -0.059144769 0.289
0.16903104 -0.058821931 0.2888889
0.17108874 -0.058529224 0.28800002
0.021645108 -0.055960756 0.288625
0.023359081 -0.057045672 0.289
0.16939627 -0.05644593 0.289
0.17152999 -0.056059368 0.28855556
0.17321792 -0.055727664 0.28800002
0.019692253 -0.053710535 0.28800002
0.021086218 -0.053385053 0.2886667
0.17143539 -0.053627145 0.289
0.17312181 -0.053597689 0.28842857
0.019468129 -0.051245157 0.28800002
0.021110049 -0.051198188 0.289
0.17179522 -0.051198188 0.289
0.17378215 -0.051452205 0.28836367
0.019071432 -0.048699658 0.28828573
0.020660242 -0.048949156 0.289
0.17179522 -0.049398966 0.289
0.17374159 -0.048864469 0.28850004
0.17568329 -0.048331536 0.28800002
0.017002752 -0.045642033 0.28800002
0.018733025 -0.046322372 0.28874999
0.020660242 -0.047149934 0.289
0.17394653 -0.046273623 0.28863639
0.17604189 -0.045910984 0.28800002
0.01436295 -0.043101672 0.289
0.016150095 -0.043517299 0.2887778
0.018261272 -0.04415122 0.289
0.17404427 -0.043551479 0.289
0.1761748 -0.043360382 0.28827277
0.01436295 -0.04085264 0.289
0.015712371 -0.04085264 0.289
0.17449407 -0.041302446 0.289
0.17643577 -0.041230988 0.28850001
0.0143381 -0.039435655 0.28850001
0.016043125 -0.038924459 0.28887501
0.17449407 -0.039053414 0.289
0.17643577 -0.038985845 0.28850004
0.1783728 -0.038918283 0.28800002
0.01602992 -0.036419854 0.28862503
0.17449407 -0.037254188 0.289
0.17648686 -0.0363019 0.28858337
0.1783728 -0.03622878 0.28800002
0.01436295 -0.033655737 0.289
0.015712371 -0.033655737 0.289
0.17682812 -0.033710759 0.28870004
0.17859693 -0.033315156 0.28800002
0.014313252 -0.03129803 0.28800002
0.015802333 -0.031136816 0.289
0.17696801 -0.031181797 0.289
0.17850883 -0.031151831 0.28842857
0.014313252 -0.02905678 0.28800002
0.015590723 -0.028917214 0.28839999
0.17719291 -0.028707864 0.289
0.17871633 -0.028982159 0.28837502
0.014313252 -0.026367279 0.28800002
0.01570357 -0.026443055 0.28883335
0.17719291 -0.02645883 0.289
0.17857821 -0.026397796 0.28833336
0.014329817 -0.023704147 0.28833333
0.01562241 -0.023939913 0.289
0.17719291 -0.024209797 0.289
0.17878465 -0.023732588 0.2886667
0.18016581 -0.023677779 0.28800002
0.013679994 -0.021127203 0.28814286
0.01562241 -0.02088123 0.289
0.17924917 -0.021189669 0.289
0.18118522 -0.021126892 0.28837502
0.18310864 -0.021016182 0.28839999
0.014313252 -0.018747028 0.28800002
0.015712371 -0.01881212 0.289
0.17944194 -0.01881212 0.289
0.18124117 -0.01881212 0.289
0.18304041 -0.01881212 0.289
0.014313252 -0.016954027 0.28800002
0.015685447 -0.01653547 0.28850001
0.17902678 -0.016443862 0.28887501
0.18070368 -0.016864378 0.28800002
0.016106253 -0.012919775 0.28800002
0.17719291 -0.013864249 0.289
0.17864703 -0.013837943 0.28844446
0.1801658 -0.014264526 0.28800002
0.015685964 -0.011146092 0.28850001
0.17694028 -0.010859619 0.28883335
0.17863892 -0.011248886 0.28825003
0.01602992 -0.0083431331 0.28862503
0.1769875 -0.0084568057 0.2886667
0.1783728 -0.008437274 0.28800002
0.01612593 -0.0062031946 0.28833333
0.017961401 -0.005767731 0.289
0.17698751 -0.0062103658 0.2886667
0.1783728 -0.0061960239 0.28800002
0.016564343 -0.0039575808 0.28816667
0.017961401 -0.0039685047 0.289
0.1769875 -0.0039639273 0.2886667
0.1783728 -0.0039547733 0.28800002
0.017002752 -0.0012652724 0.28800002
0.018321246 -0.0010897431 0.289
0.17682812 -0.0011783864 0.28870004
0.1783728 -0.0012652724 0.28800002
0.018603981 0.0015576895 0.289
0.17634118 0.0013454257 0.28854549
0.018818544 0.0036697213 0.28833333
0.020660242 0.0041280123 0.289
0.17449407 0.0036782059 0.289
0.17588557 0.0036697213 0.28833333
0.019347327 0.0057309088 0.28819999
0.021020088 0.0061071613 0.289
0.17422469 0.0059177778 0.28855556
0.17598212 0.0053090625 0.28800002
0.019692253 0.0081479801 0.28800002
0.02141127 0.0087232171 0.28850001
0.17164582 0.0092925476 0.28875002
0.1731133 0.0084228991 0.28819999
0.021741396 0.01115766 0.28800002
0.02354357 0.011081198 0.28850001
0.16999601 0.011324917 0.289
0.17139788 0.011298792 0.28833336
0.17299379 0.01038923 0.28800002
0.021741396 0.014103303 0.28800002
0.023718927 0.014203678 0.289
0.16999601 0.014023756 0.289
0.17139791 0.013991405 0.28833336
0.17299379 0.014423482 0.28800002
0.018795753 0.016216481 0.28800002
0.021485254 0.016216481 0.28800002
0.023768473 0.016244635 0.28850001
0.025458178 0.016422724 0.289
0.16930504 0.016384149 0.28833333
0.17104819 0.015795607 0.28850001
0.019244004 0.017561233 0.28800002
0.021709379 0.017785357 0.28800002
0.023816153 0.018278433 0.28800002
0.025912434 0.018609462 0.288625
0.026165713 0.020623397 0.28820002
0.028197711 0.021385277 0.2888
0.028990297 0.02356497 0.28833333
0.030555984 0.024819113 0.289
0.16492529 0.024284985 0.28800002
0.16582179 0.024733234 0.28800002
0.029553756 0.025629735 0.28800002
0.031152805 0.026577976 0.28857145
0.16436586 0.026539395 0.28814289
0.16582179 0.026526235 0.28800002
0.031682909 0.028500909 0.28833336
0.033479728 0.028642468 0.289
0.16159961 0.029017307 0.289
0.16362688 0.028537557 0.28840002
0.031944424 0.03041107 0.28800002
0.033747941 0.030892793 0.28860003
0.035353921 0.031716146 0.289
0.16140148 0.030813675 0.28857142
0.16343112 0.03041107 0.28800002
0.034932759 0.032801736 0.28800002
0.036288626 0.033971142 0.2888
0.038202696 0.034714855 0.289
0.15692002 0.034374945 0.2886667
0.1584705 0.033518936 0.28800002
0.036725756 0.035939485 0.28800002
0.038564034 0.036429159 0.28833336
0.041202832 0.036752619 0.28885716
0.043450434 0.037113827 0.289
0.15410285 0.036813956 0.289
0.15605052 0.036322277 0.28837502
0.15775329 0.035491236 0.28800002
0.038967006 0.039077237 0.28800002
0.041208256 0.039077241 0.28800002
0.043563049 0.038729973 0.28875002
0.15146747 0.039173268 0.28871432
0.15358165 0.039015278 0.28837502
0.15536262 0.03847957 0.28800002
0.036277507 0.04176674 0.28800002
0.038698055 0.04140814 0.28800002
0.041208256 0.041318487 0.28800002
0.043900404 0.04108873 0.28875002
0.046299212 0.041911762 0.289
0.14660607 0.041911762 0.289
0.14884509 0.041376978 0.28885716
0.15115331 0.041016463 0.28833336
0.15327078 0.040870238 0.28800002
0.036725756 0.042663239 0.28800002
0.038630821 0.043447677 0.28800002
0.04120826 0.043559741 0.28800002
0.043915045 0.043576196 0.28811112
0.046376888 0.043730136 0.28828573
0.048524253 0.043688934 0.28885716
0.050797276 0.044610601 0.289
0.14413214 0.044385698 0.289
0.14623959 0.043746646 0.28850001
0.14851588 0.043242067 0.28812501
0.15058129 0.042663239 0.28800002
0.041387562 0.045711342 0.28800002
0.043897763 0.045800988 0.28800002
0.046587259 0.045800995 0.28800002
0.048828512 0.046249241 0.28800002
0.051168621 0.046337411 0.28855559
0.053721022 0.047084536 0.289
0.13940917 0.04730944 0.289
0.14126666 0.046643469 0.28885716
0.14342132 0.046176545 0.28825003
0.14550112 0.045651574 0.28800002
0.049276762 0.048042241 0.28800002
0.051069759 0.04893874 0.28800002
0.053842567 0.049013223 0.28844446
0.056303732 0.049163021 0.28857145
0.058393434 0.049290307 0.28874999
0.060243215 0.049108662 0.289
0.1365516 0.049350858 0.2886667
0.13881835 0.048933629 0.28845456
0.14101861 0.048341077 0.28800002
0.051966261 0.050731741 0.28800002
0.053759262 0.051179994 0.28800002
0.056448761 0.05117999 0.28800002
0.058820732 0.050945651 0.28819999
0.060894307 0.051063377 0.2884286
0.06294205 0.051807508 0.289
0.13153756 0.051582605 0.289
0.13400763 0.050975528 0.28874999
0.13624309 0.050887063 0.28825003
0.13847855 0.050731741 0.28800002
0.05393856 0.052883346 0.28800002
0.056448761 0.052972991 0.28800002
0.058690012 0.052524742 0.28800002
0.061110567 0.052883338 0.28800002
0.063719288 0.053502642 0.28844449
0.066502653 0.054025102 0.28883335
0.068789542 0.054506347 0.289
0.070138961 0.054506347 0.289
0.12366593 0.054506347 0.289
0.12613986 0.054281443 0.289
0.12888405 0.053711522 0.28860003
0.1312438 0.053345274 0.28828573
0.13336848 0.052883346 0.28800002
0.13534078 0.052524742 0.28800002
0.064517267 0.055214241 0.28800002
0.066534393 0.055438366 0.28800002
0.069033988 0.056138132 0.28814286
0.071189813 0.056092668 0.28857142
0.073499545 0.056477766 0.28857142
0.076436251 0.056755375 0.289
0.078685284 0.057205185 0.289
0.080934316 0.057205185 0.289
0.083183348 0.057205185 0.289
0.11646903 0.057205185 0.289
0.11889799 0.056845337 0.289
0.12122985 0.056217942 0.28855556
0.1236812 0.056046613 0.28825003
0.12619647 0.055572845 0.28800002
0.12906529 0.055214241 0.28800002
0.071241021 0.057903741 0.28800002
0.073661566 0.058262341 0.28800002
0.076171771 0.058351994 0.28800002
0.078861266 0.058351994 0.28800002
0.081474103 0.058937442 0.28812501
0.083640806 0.058700889 0.28814286
0.086100005 0.058844924 0.28822225
0.088726722 0.059143443 0.28842857
0.091359302 0.059419811 0.28840002
0.093815334 0.059350576 0.28849998
0.096273854 0.059281342 0.2886
0.098812997 0.059385121 0.2886667
0.10117561 0.059454218 0.289
0.10342463 0.059454214 0.289
0.10612348 0.059454214 0.289
0.10882232 0.059454214 0.289
0.11164968 0.059261441 0.289
0.11377019 0.059004407 0.289
0.11623545 0.059029948 0.28872728
0.11862165 0.058700893 0.28814286
0.12069795 0.058501408 0.28800002
0.086481526 0.060593244 0.28800002
0.088722773 0.060593244 0.28800002
0.091412269 0.060593244 0.28800002
0.094101779 0.060593244 0.28800002
0.09649244 0.060892075 0.28800002
0.098712347 0.061233599 0.28800002
0.10116171 0.061601806 0.28800002
0.10378373 0.061559875 0.28833339
0.1061698 0.061451841 0.28842857
0.10857128 0.061559871 0.28833336
0.11139254 0.061631043 0.2886667
0.1137936 0.061738927 0.28857142
0.1162607 0.061446775 0.28818184
0.11875554 0.061489746 0.28800002
0.12063818 0.061848342 0.28800002
0.12278979 0.062386245 0.28800002
0.083922543 -0.10057392 0.29000002
0.086179361 -0.10057392 0.29000002
0.088436179 -0.10057392 0.29000002
0.091144353 -0.10057392 0.29000002
0.071735747 -0.097865738 0.29000002
0.073992558 -0.097865738 0.29000002
0.076249376 -0.097865738 0.29000002
0.078506187 -0.098317094 0.28999999
0.081214368 -0.098768473 0.28999999
0.08392255 -0.098768473 0.28999999
0.086179353 -0.098768473 0.28999999
0.088436179 -0.098768465 0.28999999
0.091144353 -0.098768473 0.28999999
0.093852527 -0.098768465 0.28999999
0.096560709 -0.098768465 0.28999999
0.098817527 -0.098768465 0.28999999
0.10107434 -0.098768465 0.28999999
0.10378251 -0.098317109 0.28999999
0.10649069 -0.098317094 0.28999999
0.10874751 -0.097865738 0.29000002
0.11100433 -0.097865738 0.29000002
0.11371251 -0.097865738 0.29000002
0.11551796 -0.097865738 0.29000002
0.064513944 -0.095157556 0.29000002
0.066319391 -0.09560892 0.29000002
0.068576209 -0.096060283 0.28999999
0.071284384 -0.096060291 0.28999999
0.073992558 -0.096060283 0.28999999
0.076249376 -0.096060283 0.28999999
0.078506194 -0.096060283 0.28999999
0.081214368 -0.096060291 0.28999999
0.083922543 -0.096060283 0.28999999
0.086179353 -0.096060283 0.28999999
0.088436179 -0.096060283 0.28999999
0.091214545 -0.096133195 0.29022223
0.093924105 -0.096133202 0.29022223
0.096560709 -0.096060276 0.28999999
0.098817527 -0.096060283 0.28999999
0.10107435 -0.096060276 0.28999999
0.10378252 -0.096060283 0.28999999
0.1064907 -0.096060283 0.28999999
0.10874751 -0.096060283 0.28999999
0.11100433 -0.096060283 0.28999999
0.1137125 -0.096060283 0.28999999
0.11642068 -0.096060276 0.28999999
0.11858722 -0.095879741 0.29000002
0.12075377 -0.095518649 0.29000002
0.12273977 -0.095157556 0.29000002
0.061580081 -0.093577795 0.29000002
0.064094141 -0.093655579 0.29014286
0.066288628 -0.093451746 0.29071429
0.068733849 -0.093565673 0.29066664
0.071448252 -0.093565673 0.2906667
0.07387954 -0.093664125 0.29057145
0.076106884 -0.093479536 0.29075003
0.078686662 -0.093565673 0.2906667
0.081307724 -0.093458377 0.29033336
0.083788209 -0.09361814 0.29042858
0.086062543 -0.093479529 0.29075003
0.088741131 -0.093674004 0.29100001
0.091458641 -0.093674012 0.29100001
0.093723238 -0.093674004 0.29100001
0.0961354 -0.093732096 0.29089999
0.098733395 -0.093479522 0.29075003
0.10122889 -0.093494147 0.29044443
0.10370424 -0.093655571 0.29014283
0.1064907 -0.093803473 0.28999999
0.10874751 -0.09380348 0.29000002
0.11100433 -0.093803465 0.28999999
0.11371251 -0.093803473 0.28999999
0.11642069 -0.093803473 0.28999999
0.1186775 -0.09380348 0.29000002
0.12093432 -0.093803473 0.28999999
0.1236425 -0.093803473 0.28999999
0.12612499 -0.093577795 0.29000002
0.12860748 -0.093352109 0.29000002
0.056840766 -0.090643927 0.29000002
0.058775183 -0.091288738 0.28999999
0.061460707 -0.091251045 0.29049996
0.063734755 -0.09116976 0.29085717
0.066095151 -0.090956479 0.29100001
0.068812668 -0.090956494 0.29100001
0.071530193 -0.090956494 0.29100001
0.073794782 -0.090956487 0.29100001
0.076059386 -0.090956487 0.29100001
0.078776903 -0.090956479 0.29100001
0.081494413 -0.090956494 0.29100001
0.083759017 -0.090956487 0.29100001
0.086023606 -0.090956479 0.29100001
0.088741131 -0.090956487 0.29100001
0.098705359 -0.090956487 0.29100001
0.10142287 -0.090956494 0.29100001
0.10382407 -0.091329716 0.29074997
0.10615898 -0.091322117 0.29061538
0.10870075 -0.091101356 0.29059997
0.11119571 -0.0912508 0.29050002
0.11368819 -0.091400236 0.29039997
0.1161 -0.091252595 0.29063636
0.11864174 -0.091227919 0.29081818
0.12124706 -0.091329701 0.29075
0.12389094 -0.0912771 0.29058334
0.12630366 -0.091397054 0.29010001
0.12905884 -0.091546655 0.28999999
0.13131566 -0.091095291 0.29000002
0.13266975 -0.090643927 0.29000002
0.052327141 -0.087935753 0.29000002
0.053831682 -0.08823666 0.29000002
0.055938046 -0.088838473 0.28999999
0.058758907 -0.089007631 0.2905556
0.061565965 -0.088691898 0.29100001
0.063830562 -0.088691898 0.29100001
0.066265561 -0.088427231 0.29124999
0.068891495 -0.088339016 0.29133335
0.071410961 -0.08854077 0.29157144
0.073644124 -0.08835201 0.29175004
0.07623364 -0.08844009 0.29166669
0.078957371 -0.088440098 0.29166669
0.081394747 -0.088540778 0.29157144
0.10142287 -0.088691898 0.29100001
0.10607343 -0.088339008 0.29133335
0.10879406 -0.088339008 0.29133335
0.1113871 -0.088691898 0.29100001
0.11365169 -0.088691898 0.29100001
0.11591629 -0.088691898 0.29100001
0.1186338 -0.088691898 0.29100001
0.12135132 -0.088691898 0.29100001
0.12406883 -0.088691898 0.29100001
0.12659873 -0.089012638 0.29057145
0.12892218 -0.088778526 0.29010001
0.13131565 -0.08883848 0.28999999
0.13345963 -0.088725641 0.28999999
0.13628066 -0.087935753 0.29000002
0.13808611 -0.087935753 0.29000002
0.049318057 -0.085528485 0.29000002
0.051424418 -0.086130306 0.28999999
0.053593121 -0.08616972 0.29057145
0.056109846 -0.086393937 0.29088891
0.058848448 -0.086427301 0.29100001
0.061505239 -0.086613998 0.29124999
0.063792475 -0.086508706 0.29171434
0.06616044 -0.086421728 0.29185718
0.12633343 -0.086427294 0.29100001
0.12873438 -0.086487867 0.29089999
0.13120237 -0.086164787 0.29049999
0.13357247 -0.086130299 0.28999999
0.13628064 -0.086130306 0.28999999
0.13898882 -0.086130306 0.28999999
0.14115538 -0.085949756 0.29000002
0.14290065 -0.085528485 0.29000002
0.044202607 -0.082519397 0.29000002
0.046188604 -0.082880482 0.29000002
0.048772924 -0.083517313 0.29033333
0.051119786 -0.083661318 0.29083335
0.053434156 -0.083741397 0.29111114
0.056238439 -0.083868556 0.29155558
0.059050679 -0.083997451 0.29200003
0.061323062 -0.083997451 0.29200003
0.13393037 -0.083645158 0.2907778
0.13638473 -0.083485357 0.29022223
0.13898885 -0.083422117 0.28999999
0.14124565 -0.083422124 0.28999999
0.14350247 -0.083422124 0.28999999
0.14590973 -0.08312121 0.28999999
0.1480161 -0.082519397 0.29000002
0.042096246 -0.081014849 0.29000002
0.043871999 -0.08094953 0.29020002
0.046113823 -0.080898441 0.29066664
0.048884217 -0.080992259 0.29100001
0.05117837 -0.081038125 0.29116669
0.05357692 -0.081239313 0.29188892
0.056323819 -0.08127059 0.29200003
0.13403307 -0.080992267 0.29100001
0.13629766 -0.080992259 0.29100001
0.13856226 -0.080992259 0.29100001
0.14122549 -0.080960989 0.29088891
0.14377701 -0.080867529 0.29055554
0.14621063 -0.081165306 0.28999999
0.14873827 -0.081075035 0.29000002
0.15072426 -0.080713943 0.29000002
0.039688975 -0.078005761 0.29000002
0.041236509 -0.07903745 0.28999999
0.043427862 -0.078882456 0.29085717
0.046219587 -0.078363374 0.29133335
0.049015224 -0.078483261 0.29177779
0.051324591 -0.078543738 0.29200003
0.053596966 -0.078543738 0.29200003
0.13648222 -0.078509092 0.29120001
0.13856769 -0.078454442 0.29124999
0.14127977 -0.078727663 0.29100001
0.1439973 -0.078727663 0.29100001
0.14637801 -0.078998491 0.29033333
0.14891881 -0.078908488 0.28999999
0.15117563 -0.078908488 0.28999999
0.15283062 -0.078306668 0.29000002
0.036980797 -0.075297587 0.29000002
0.038916193 -0.07611993 0.29012498
0.041161261 -0.076418765 0.29083335
0.043499652 -0.07654997 0.29133335
0.046325356 -0.076271363 0.29200003
0.049052209 -0.076271355 0.29200003
0.051324591 -0.076271355 0.29200003
0.14134783 -0.076674059 0.29137504
0.14386499 -0.076398447 0.29109997
0.14626189 -0.076463073 0.29100001
0.14871527 -0.076473184 0.29072726
0.15105598 -0.076108448 0.29014286
0.15317452 -0.076071359 0.28999999
0.034272622 -0.072589405 0.29000002
0.036206853 -0.073410578 0.29012498
0.038905479 -0.07371705 0.29088891
0.041255612 -0.073871225 0.29150003
0.043598503 -0.073998973 0.29200003
0.046325356 -0.073998973 0.29200003
0.049052209 -0.073998973 0.29200003
0.14377818 -0.074011914 0.29172727
0.14613891 -0.073651902 0.29114288
0.14852649 -0.073745541 0.29100001
0.15107006 -0.073660381 0.2906667
0.15343244 -0.07349214 0.28999999
0.15583973 -0.073191226 0.28999999
0.033971712 -0.071084864 0.29000002
0.036175527 -0.070973441 0.2907778
0.03900985 -0.071190067 0.29166669
0.041326124 -0.07127212 0.29200003
0.043598503 -0.07127212 0.29200003
0.046325356 -0.071726598 0.29200003
0.048597734 -0.072181076 0.29200003
0.14625403 -0.071244657 0.29188889
0.14863956 -0.071081579 0.29122224
0.15124398 -0.071028024 0.29100001
0.15390238 -0.071000569 0.29088891
0.15616199 -0.070957042 0.29025
0.15824698 -0.071084864 0.29000002
0.032166261 -0.068376683 0.29000002
0.033840954 -0.069017626 0.29016668
0.036368318 -0.068635963 0.29128572
0.039053738 -0.068545267 0.29200003
0.041235227 -0.068727061 0.29200003
0.042689551 -0.069454223 0.29200003
0.14903688 -0.06854526 0.29200003
0.15145445 -0.068570077 0.29162502
0.15377739 -0.068602428 0.29114288
0.15638956 -0.068986997 0.29080003
0.158619 -0.068939395 0.29018182
0.16065426 -0.06852714 0.29000002
0.029458083 -0.065668516 0.29000002
0.031564444 -0.066270329 0.28999999
0.033727337 -0.066336349 0.29085717
0.036136679 -0.066470534 0.29137504
0.039053742 -0.066272892 0.29200003
0.15130925 -0.066272892 0.29200003
0.15382279 -0.066499025 0.29136363
0.15622611 -0.066498846 0.29100001
0.15867017 -0.066518314 0.29072726
0.16131729 -0.066094771 0.29011112
0.023439908 -0.063110791 0.28999999
0.026328633 -0.063020512 0.29000002
0.028890124 -0.063634515 0.29033333
0.031220363 -0.063781328 0.29100001
0.03352401 -0.063853696 0.29133335
0.036326889 -0.064000517 0.29200003
0.038599268 -0.06400051 0.29200003
0.15130925 -0.06400051 0.29200003
0.1538154 -0.064043008 0.2918182
0.15610804 -0.063682787 0.29114288
0.15849072 -0.063781328 0.29100001
0.16133566 -0.063653208 0.29041663
0.16372353 -0.063381605 0.29000002
0.02366559 -0.061531018 0.29000002
0.026290372 -0.061141424 0.29014283
0.028955767 -0.061063807 0.29100001
0.03127427 -0.061167691 0.29150003
0.033600029 -0.061273653 0.29200003
0.036213268 -0.061387271 0.29200003
0.03814479 -0.062182609 0.29200003
0.15358165 -0.061273653 0.29200003
0.15595059 -0.061133761 0.29133335
0.15849072 -0.061063807 0.29100001
0.16143578 -0.061107721 0.29081818
0.1638138 -0.061305337 0.29000002
0.16516788 -0.060853973 0.29000002
