# .PCD v0.7 - Point Cloud Data file format
VERSION 0.7
FIELDS x y z
SIZE 4 4 4
TYPE F F F
COUNT 1 1 1
WIDTH 1272
HEIGHT 1
VIEWPOINT 0 0 0 1 0 0 0
POINTS 1272
DATA ascii
-0.066589713 -0.04318228 0.0082878144
-0.068574056 -0.042867936 0.0090413801
-0.070067219 -0.042641714 0.0095438929
0.057234142 -0.053320974 0.0094645321
0.055349592 -0.052729875 0.0087222429
0.053354464 -0.052616961 0.0082226144
0.051403176 -0.052548286 0.0074722786
0.049456332 -0.052537765 0.0074711703
-0.064585686 -0.041551713 0.0075639021
-0.066498719 -0.041190349 0.0075681554
-0.068449974 -0.040843837 0.0085722692
-0.070284113 -0.040736984 0.0092394259
0.058955118 -0.051902596 0.0094872955
0.057544533 -0.051314559 0.0089952741
0.055184305 -0.050711442 0.0080028391
0.053185046 -0.050595224 0.0075032297
0.05176454 -0.050635468 0.0075016851
-0.066488251 -0.039243765 0.0075978413
-0.068362482 -0.0388477 0.0078526707
-0.07041762 -0.03879147 0.0090023251
-0.071857788 -0.039300919 0.0095936693
0.059679989 -0.049860239 0.0095189
0.057436112 -0.04895876 0.0081977192
0.055229817 -0.048744269 0.0077328049
0.053387865 -0.048490103 0.0075354567
0.052284457 -0.048914954 0.0075282417
-0.068390816 -0.036935758 0.0076317815
-0.070263654 -0.036541432 0.0078865858
-0.0722204 -0.037190713 0.0093755499
-0.073698759 -0.036483362 0.0096353991
0.06145139 -0.047918741 0.0095496476
0.059993383 -0.047849726 0.0090496931
0.057789128 -0.047659446 0.008151086
0.055119023 -0.047063366 0.0075583505
-0.0685727 -0.035147715 0.0076589277
-0.070151739 -0.034995593 0.0076602041
-0.072142802 -0.035192009 0.0086560259
-0.074113168 -0.03489466 0.0094093177
-0.075590141 -0.03418899 0.0096691437
0.063796408 -0.045504428 0.0095880134
0.061767168 -0.045905031 0.0090805115
0.059524845 -0.045626104 0.0082499012
0.057638027 -0.045791112 0.007779412
0.05542969 -0.045676816 0.0075797006
-0.06999962 -0.033416737 0.0076843747
-0.072022028 -0.033153553 0.0081871124
-0.074039787 -0.032890849 0.0086898673
-0.075962178 -0.032569017 0.0096936179
-0.077481516 -0.031894613 0.0097028883
0.064994149 -0.044035621 0.0096111754
0.063693658 -0.043777291 0.0092808837
0.061818745 -0.043939665 0.0088105053
0.059628602 -0.043746576 0.0078619076
0.057579353 -0.043582156 0.0076130368
0.055949606 -0.043956362 0.0076062558
-0.070323162 -0.031260848 0.007717038
-0.071902193 -0.031108728 0.0077183144
-0.073879652 -0.030820075 0.0084715271
-0.075847872 -0.030533031 0.0092246784
-0.077662319 -0.03011702 0.009729892
0.067339189 -0.041621309 0.0096495412
0.065779261 -0.042029709 0.0093922475
0.063862182 -0.041938566 0.0086423242
0.061935119 -0.041845683 0.0078923758
0.059887562 -0.041679859 0.0076435516
0.058257814 -0.042054005 0.0076367715
-0.071699373 -0.029003605 0.0077505717
-0.073589176 -0.028956709 0.008083377
-0.074899964 -0.028435448 0.0084238742
-0.07721775 -0.028285515 0.0092580449
-0.079171278 -0.027507456 0.0097686648
0.067490414 -0.040051766 0.0096735572
0.066041358 -0.039971113 0.0091737788
0.064123243 -0.039874371 0.0084239319
0.06219577 -0.039777502 0.0076740673
0.060566023 -0.040151708 0.0076672868
-0.072073609 -0.027374042 0.0077751479
-0.073075593 -0.026746364 0.0077840751
-0.074654639 -0.026594244 0.0077853519
-0.076870315 -0.026344882 0.0089878226
-0.07871528 -0.025829997 0.0094611663
-0.080016136 -0.025313878 0.0098015834
0.068215296 -0.038009413 0.0097051915
0.066365831 -0.037942868 0.0087048877
0.064444289 -0.037841149 0.0079550818
0.062557153 -0.037864685 0.0077034738
-0.074451812 -0.024489062 0.0078175794
-0.076512396 -0.024262249 0.0080697183
-0.07843253 -0.023965636 0.0090730973
-0.080196954 -0.023536284 0.0098285582
0.068479158 -0.035948582 0.0094867507
0.066628739 -0.03587573 0.0084865624
0.06470681 -0.035770025 0.0077368105
0.06307707 -0.036144231 0.0077300295
-0.074826047 -0.022859499 0.0078421859
-0.07635437 -0.022181114 0.0078515187
-0.078322016 -0.021912133 0.0086044269
-0.080280423 -0.021644764 0.0093572726
-0.081756309 -0.021449901 0.0098593459
0.070137911 -0.034498252 0.0097599579
0.068806402 -0.033915918 0.0090178857
0.066953495 -0.033836618 0.0080178166
0.065068193 -0.033857211 0.007766217
-0.076343909 -0.020234471 0.0078812065
-0.078210898 -0.019852402 0.0081358394
-0.080173634 -0.019589368 0.0088886321
-0.081605069 -0.0198803 0.0098833628
0.070654765 -0.032787934 0.0097863805
0.069021158 -0.032373004 0.0087915286
0.067217849 -0.031762607 0.0077995523
0.065638788 -0.031610489 0.0078008287
-0.078246482 -0.017926522 0.0079151457
-0.079937704 -0.017732119 0.008250366
-0.082025342 -0.018279338 0.0096574528
0.072583765 -0.031037576 0.0098143248
0.071078144 -0.030914588 0.0095652128
0.069172822 -0.030798772 0.0088156378
0.06736996 -0.030183692 0.0078237234
0.065790921 -0.030031573 0.00782503
-0.078428365 -0.01613842 0.0079422919
-0.080153495 -0.016295929 0.0082721077
-0.081920564 -0.016220592 0.0091888886
-0.083345227 -0.016016383 0.0099411532
0.073308632 -0.028995221 0.009845959
0.071409233 -0.028874494 0.0090964437
0.069500498 -0.028753642 0.0083469693
0.067522094 -0.028604837 0.007847894
0.065943033 -0.028452717 0.0078492006
-0.079855286 -0.014407443 0.0079677394
-0.081815176 -0.014155617 0.0087204082
-0.083475642 -0.013715606 0.009976143
0.07513044 -0.026530482 0.0098847235
0.073576264 -0.026927728 0.0096276039
0.07167647 -0.026803078 0.0088782003
0.069766678 -0.026676686 0.0081287725
0.067724906 -0.026499715 0.0078801215
-0.079844818 -0.012460859 0.0079974262
-0.081660666 -0.012070216 0.008502271
-0.083563954 -0.011809587 0.0095050884
0.07528165 -0.024960879 0.0099087711
0.073844127 -0.024857923 0.0094093382
0.071943305 -0.024727734 0.0086599812
0.070033118 -0.024597358 0.0079106372
0.068086274 -0.024586895 0.007909528
-0.079975992 -0.010146492 0.0080326293
-0.081458144 -0.0099681783 0.0085344268
-0.083362028 -0.0097137196 0.0095371623
0.075483277 -0.022868155 0.0099408031
0.074113116 -0.022784334 0.0091911228
0.072210357 -0.022650018 0.0084418235
0.070235938 -0.022492236 0.0079428935
0.068606183 -0.022866441 0.0079361126
-0.079773165 -0.0080413111 0.0080648568
-0.081255622 -0.0078661405 0.0085666124
-0.083160102 -0.0076178517 0.0095692659
-0.084581308 -0.0069204783 0.010079012
0.076208167 -0.020825801 0.0099724075
0.074382357 -0.020708429 0.0089729084
0.072412878 -0.02054798 0.0084740091
0.070438765 -0.020387115 0.007975121
-0.079621047 -0.0064624534 0.0080890274
-0.081149399 -0.0057840673 0.0080983909
-0.083007835 -0.0055314712 0.0093511436
-0.084430099 -0.0053509353 0.010103058
0.076409787 -0.018733015 0.01000444
0.074584574 -0.018609475 0.0090050232
0.072746985 -0.01848476 0.0080056367
0.070641585 -0.018281933 0.0080073485
-0.08094658 -0.0036789447 0.0081306174
-0.082855336 -0.003442717 0.0091330539
-0.08475171 -0.0032077853 0.010135518
0.076611437 -0.016640235 0.010036503
0.074786782 -0.016510522 0.0090371687
0.072949789 -0.016379638 0.0080378633
0.070844404 -0.016176812 0.008039576
-0.080743752 -0.0015737632 0.0081628459
-0.082750343 -0.0013574214 0.0086648762
-0.084650427 -0.0011283779 0.0096672364
-0.086119838 -0.00096377771 0.010168836
0.07681305 -0.014547512 0.010068535
0.074989021 -0.014411571 0.0090693133
0.073152609 -0.014274456 0.0080700917
0.071573578 -0.014122335 0.0080713686
-0.080733277 0.00037287813 0.0081925327
-0.082547829 0.0007446169 0.0086970627
-0.084448501 0.00096749037 0.0096993102
-0.086250246 0.0013369975 0.010203825
0.076964274 -0.012977909 0.010092552
0.075178146 -0.012510251 0.0084316619
0.073355436 -0.012169333 0.0081023183
-0.080864452 0.0026872472 0.0082277358
-0.082219452 0.0026523962 0.0085596489
-0.084297068 0.0025394065 0.0097233886
-0.085767001 0.0026985484 0.010224885
0.078735642 -0.011036408 0.01012333
0.077252746 -0.011436803 0.0096162027
0.075573638 -0.011123339 0.0087864697
0.073507562 -0.010590478 0.0081264889
-0.080712348 0.0042661037 0.0082519064
-0.082369909 0.0040919618 0.0089149112
-0.084145613 0.0041113212 0.0097474363
-0.085615769 0.0042681494 0.010248932
0.078886874 -0.0094668064 0.010147347
0.077454686 -0.0093409363 0.0096482765
0.075629056 -0.009189235 0.0086492989
0.074186027 -0.0090623284 0.0081502236
-0.080033869 0.0057942537 0.0082756411
-0.082041517 0.0059997388 0.0087775281
-0.083943687 0.0062071295 0.009779539
-0.085414141 0.0063608731 0.010280964
0.079088509 -0.007374024 0.01017938
0.077656612 -0.0072450689 0.0096803801
0.075831585 -0.0070871976 0.0086814845
0.074388847 -0.0069571459 0.0081824521
-0.080357403 0.0079500824 0.0083083045
-0.081839003 0.0081017781 0.0088096838
-0.083741762 0.0083029978 0.0098116137
-0.085212514 0.008453656 0.010312997
0.079655774 -0.0051404652 0.010213819
0.077998228 -0.0051685227 0.009212208
0.076170705 -0.0050041433 0.0082134027
0.074591674 -0.0048520239 0.0082146786
-0.080154575 0.010055264 0.008340532
-0.081636459 0.010203814 0.0088418704
-0.083539836 0.010398866 0.0098437173
-0.085010879 0.010546438 0.01034503
0.080015004 -0.0032389448 0.010243047
0.078200467 -0.0030695705 0.0092443228
0.076373532 -0.0028990211 0.0082456293
0.074794494 -0.0027469012 0.0082469061
-0.079951748 0.012160386 0.0083727594
-0.081433952 0.012305852 0.0088740559
-0.083337896 0.012494733 0.0098757911
-0.084809259 0.012639163 0.010377091
0.079693384 -0.001095734 0.010275507
0.078402698 -0.00097061892 0.0092764683
0.07657636 -0.00079383969 0.0082778577
-0.079748936 0.014265509 0.008404986
-0.081231415 0.014407949 0.0089062424
-0.083135962 0.0145906 0.0099078948
-0.084607631 0.014731946 0.010409124
0.079895012 0.00099698955 0.010307539
0.078604914 0.0011283346 0.0093086129
0.076779172 0.0013112829 0.0083100842
0.075250842 0.001989668 0.0083194477
-0.079546109 0.016370689 0.0084372144
-0.081028901 0.016509987 0.0089384289
-0.082934044 0.016686469 0.0099399686
0.080096647 0.0030897725 0.010339603
0.078666233 0.0032342114 0.0098408088
0.076981999 0.0034164649 0.0083423126
0.07540296 0.0035685843 0.0083436184
-0.078975491 0.01861747 0.0084718568
-0.080826387 0.018612023 0.0089706145
-0.08263462 0.018766228 0.010471935
0.080298282 0.0051825549 0.010371635
0.078868166 0.0053300788 0.0098728826
0.077046722 0.0055250875 0.008874571
0.075605772 0.005673707 0.0083758458
-0.078614131 0.020530289 0.0085012633
-0.080529749 0.020695208 0.0095025999
-0.082432978 0.020859011 0.010503968
0.080449484 0.0067520984 0.010395652
0.079019614 0.0069019948 0.009896961
0.077198602 0.0071016303 0.0088987108
0.075757891 0.0072525633 0.0084000165
-0.078461997 0.022109143 0.008525434
-0.080378085 0.022269437 0.0095267091
-0.082281753 0.022428613 0.010527985
0.079171047 0.0084738517 0.0099210087
0.077350512 0.0086781727 0.0089228507
0.075910017 0.0088314191 0.0084241871
-0.078309894 0.023688 0.0085496046
-0.080226399 0.023843665 0.0095508182
-0.082130544 0.023998156 0.010552032
0.079302751 0.010567327 0.010203044
0.077553019 0.010780212 0.0089550065
0.076112837 0.010936541 0.0084564136
-0.078107074 0.025793124 0.0085818311
-0.080024183 0.025942618 0.0095829628
-0.081405655 0.026040511 0.010583636
0.079434223 0.012658429 0.010485047
0.077755556 0.012882307 0.0089871939
0.075981654 0.01325097 0.0084916176
-0.077904254 0.027898245 0.0086140586
-0.079774685 0.02802626 0.0098649133
-0.081204019 0.028133294 0.010615669
0.079635859 0.014751152 0.01051708
0.077889085 0.01497867 0.0092692655
0.075992122 0.015197553 0.0085213045
-0.076071672 0.030377572 0.0086530661
-0.077701427 0.030003427 0.0086462861
-0.079525419 0.030107589 0.010146833
-0.081002414 0.030226018 0.010647731
0.079837479 0.016843937 0.010549113
0.078022398 0.017072719 0.0095513072
0.076194949 0.017302735 0.008553532
-0.075919554 0.031956427 0.0086772367
-0.077407673 0.032072809 0.0091780899
-0.079323493 0.032203458 0.010178907
-0.080851175 0.031795617 0.010671748
0.079515852 0.018987086 0.010581603
0.078224614 0.019171672 0.0095834518
0.076397762 0.019407857 0.0085857594
-0.075190388 0.034010906 0.0087090293
-0.077160664 0.034155179 0.0094600264
-0.079029389 0.034260359 0.010710512
0.078141548 0.021099975 0.009946188
0.076600596 0.021512978 0.008617986
0.075021535 0.0216651 0.0086192628
-0.073357821 0.036490232 0.0087480368
-0.074987568 0.036116026 0.0087412558
-0.076868735 0.03621383 0.0099916579
-0.078304499 0.036302716 0.010742147
0.078053713 0.02289542 0.0096401079
0.076665871 0.023595043 0.009149828
0.074890375 0.023979468 0.0086544659
-0.073205709 0.038069088 0.0087722074
-0.074697815 0.038176492 0.0092729144
-0.076621614 0.03828913 0.010273469
-0.078102879 0.038395438 0.010774178
0.077977322 0.024943847 0.010671398
0.076594263 0.025644593 0.010181128
0.074969515 0.025715617 0.0090143494
-0.072527237 0.039597239 0.0087959422
-0.07445278 0.040254313 0.0095547624
-0.076375619 0.040360581 0.01055526
0.076745704 0.027216449 0.010205205
0.074753717 0.02715181 0.0090360912
0.073423207 0.027130822 0.0087015443
-0.070745379 0.041550241 0.0088268928
-0.072375126 0.041176096 0.0088201128
-0.074258544 0.04180504 0.0098285722
-0.075657032 0.041856173 0.010828546
0.076569207 0.028599771 0.010726231
0.07500302 0.029036675 0.009481743
0.073099688 0.029286649 0.0087342067
-0.070225447 0.043270756 0.0088534793
-0.07204847 0.04320268 0.0096012792
-0.073978417 0.043300312 0.010601609
-0.075556219 0.042902533 0.010844577
0.076438807 0.030900545 0.010761221
0.075002991 0.031086164 0.010263046
0.073236272 0.031374179 0.0090161571
0.071723454 0.031543892 0.0087677101
-0.068234339 0.045557719 0.008889636
-0.069824271 0.045155708 0.0091324709
-0.071764089 0.045248009 0.01013274
-0.073576801 0.04517607 0.010880537
0.075137742 0.033162907 0.010544824
0.073307037 0.033440072 0.0095477756
0.071399935 0.033699781 0.0088003743
-0.068082228 0.047136575 0.0089138057
-0.069581874 0.047230657 0.0094143134
-0.071520723 0.047316644 0.010414466
-0.073059946 0.046886448 0.010906931
0.075081065 0.035079714 0.010824041
0.073377192 0.035499796 0.010079223
0.071537763 0.035784028 0.0090822782
0.069689713 0.036166269 0.0088368542
-0.067511596 0.049383353 0.008948449
-0.06977284 0.049281392 0.010278883
-0.071811818 0.048878375 0.010938137
0.073446751 0.037553288 0.010610646
0.071546748 0.037821691 0.0098634129
0.069700174 0.038112853 0.0088665402
0.068171844 0.038791299 0.0088759037
-0.06552048 0.051670317 0.0089846058
-0.067112416 0.05126382 0.009227383
-0.069329351 0.051219221 0.010575378
0.073059306 0.039674859 0.010892776
0.071683675 0.039896626 0.010145194
0.069775619 0.040170543 0.0093980134
0.067797624 0.04042086 0.0089004803
-0.063947871 0.053289417 0.0090103205
-0.065784737 0.05319925 0.0097578401
-0.067733124 0.053267431 0.010757675
-0.06931556 0.05286229 0.011000521
0.070248045 0.042120524 0.010428172
0.067938097 0.042500142 0.0091822855
0.066087395 0.042887349 0.0089369901
-0.061639659 0.055191714 0.0090408353
-0.063551307 0.055167008 0.0092892488
-0.065509588 0.055229858 0.010289024
-0.067336142 0.055135828 0.01103648
0.070041649 0.044057433 0.010624252
0.068762183 0.044577219 0.010297987
0.066738687 0.044440601 0.0094611319
0.064468123 0.044459786 0.0089598969
-0.05974995 0.056426145 0.009060909
-0.061425969 0.056897193 0.0094003351
-0.063209854 0.057125196 0.010319455
-0.065199137 0.057218164 0.011069605
0.068954922 0.04640682 0.010992725
0.0665951 0.046110295 0.0096531948
0.064286239 0.046247888 0.0089870431
-0.057441738 0.058328502 0.0090914248
-0.059071485 0.057954296 0.0090846438
-0.060896434 0.05821602 0.0097541977
-0.06293869 0.059146766 0.010850462
-0.064524658 0.058737338 0.011093223
0.068582885 0.048026793 0.01101717
0.066968106 0.047924615 0.010347825
0.064702854 0.048084378 0.0095153423
0.062717669 0.04834659 0.0090180058
-0.055133529 0.060230795 0.0091219395
-0.056763273 0.059856649 0.0091151595
-0.058774184 0.059943907 0.0098652868
-0.060809094 0.060069211 0.010365888
-0.062230017 0.06062847 0.011123574
0.066973135 0.049589995 0.011039972
0.064985499 0.049998578 0.010044745
0.063209638 0.050551191 0.0093853008
0.06153379 0.050762374 0.0090540508
-0.054455061 0.061758947 0.0091456743
-0.056471068 0.061842054 0.0098956926
-0.058509368 0.061964553 0.010396319
-0.06035142 0.061855644 0.011143503
0.06508176 0.051884368 0.011073686
0.063355677 0.052341696 0.010329482
0.06148668 0.052675687 0.0093332101
0.059438869 0.052911844 0.0090854503
0.057910528 0.053590227 0.0090948129
-0.052305397 0.063853607 0.0091790408
-0.05422391 0.063822515 0.0094273165
-0.056209642 0.063859895 0.010426721
-0.05805679 0.06374678 0.011173854
0.063190386 0.0541788 0.011107432
0.061460108 0.054641236 0.010363271
0.059530091 0.05494687 0.0096166013
0.0575363 0.055219792 0.0091193896
0.056007955 0.055898178 0.0091287522
-0.049997184 0.065755963 0.0092095565
-0.051917396 0.065723412 0.0094578443
-0.053938091 0.065798387 0.010207728
-0.055919778 0.065829113 0.011206978
0.061299007 0.056473177 0.011141176
0.059564535 0.056940712 0.010397119
0.057575602 0.057215471 0.0098999552
0.055633727 0.05752774 0.0091533288
0.054105394 0.058206186 0.0091626924
-0.047688968 0.067658253 0.0092400713
-0.049610879 0.06762436 0.0094883135
-0.05163667 0.067695066 0.010238145
-0.053652469 0.067764096 0.010987944
-0.055245306 0.067348287 0.011230597
0.059407625 0.05876755 0.01117492
0.057614788 0.059201829 0.010680307
0.055677239 0.059518375 0.0099337921
0.053731162 0.059835751 0.0091872988
0.052202825 0.060514133 0.0091966316
-0.044118803 0.069793157 0.0092749521
-0.04605259 0.069567263 0.0096036047
-0.047488961 0.069351502 0.0095993625
-0.049310461 0.069545858 0.010517893
-0.051356129 0.069656633 0.011018281
-0.052950665 0.069239415 0.011260917
0.05751624 0.061061926 0.011208665
0.055667143 0.06146042 0.010963519
0.053778864 0.061821219 0.0099676587
0.051828604 0.062143698 0.0092212381
0.050300259 0.062822081 0.0092305709
-0.042019848 0.07136149 0.009300231
-0.043945916 0.071324863 0.0095484406
-0.045984216 0.071387418 0.010298148
-0.048012532 0.071448244 0.01104779
-0.049609527 0.071029693 0.011290411
-0.050656028 0.071130551 0.011291268
0.055765685 0.06299074 0.011236923
0.05394908 0.063578963 0.010911313
0.052154444 0.064157143 0.010252234
0.05001919 0.064203404 0.0095847789
0.048296284 0.064077504 0.0092483973
-0.040130142 0.072595924 0.0093203038
-0.041825399 0.07305111 0.0096594794
-0.043662179 0.073235534 0.010577894
-0.045716196 0.073340774 0.011078157
-0.04731489 0.072920889 0.011320762
0.052686982 0.06575153 0.01127701
0.050557535 0.065928504 0.010678248
0.048389394 0.066083819 0.0098505439
0.046589263 0.066535719 0.0097848009
0.044814669 0.066537566 0.0092836134
-0.037504829 0.074113615 0.0093451785
-0.039366692 0.074551068 0.0098506436
-0.041306246 0.074854657 0.01035407
-0.043242481 0.074992776 0.01135501
-0.045020256 0.074812017 0.011351083
0.050413165 0.067730717 0.011305696
0.048702601 0.068247557 0.011312437
0.046893932 0.068695828 0.010818029
0.044921387 0.068071768 0.0095570898
0.042861398 0.068319254 0.0093094958
0.040806711 0.069048345 0.0093192644
-0.032881975 0.076147042 0.0093791867
-0.035038069 0.075823605 0.0093728425
-0.037168644 0.076189414 0.010177097
-0.039028972 0.076924115 0.011137176
-0.04115586 0.076551929 0.011380149
0.046428788 0.070226744 0.011341123
0.044806354 0.070251487 0.010940395
0.042910989 0.070732713 0.010513112
0.040874701 0.07053417 0.0098420205
0.038853433 0.070830032 0.0093451468
0.036798745 0.071559124 0.0093549155
-0.026889326 0.077694453 0.0094067138
-0.028468369 0.077846572 0.0094079906
-0.030624472 0.077523075 0.0094016455
-0.032705627 0.077622384 0.0099018598
-0.034711756 0.078177176 0.010742432
-0.036521502 0.078267455 0.011159304
-0.038337976 0.078392632 0.011410072
0.0424444 0.07272277 0.011376579
0.04090853 0.072445445 0.010871284
0.038893737 0.072743773 0.010374467
0.036872633 0.073041238 0.0098776156
0.034845475 0.073340803 0.0093807988
0.032790788 0.074069895 0.0093905674
0.031211739 0.074222021 0.0093918741
-0.021423033 0.079292506 0.0094346758
-0.023002075 0.079444624 0.0094359526
-0.024631822 0.079070479 0.0094291726
-0.026203157 0.079169683 0.0096796742
-0.028298514 0.079319388 0.0099306069
-0.03036901 0.079363957 0.010680019
-0.032455076 0.07951282 0.010930959
-0.033950344 0.080082111 0.01143871
0.040975463 0.073920354 0.011393865
0.038932856 0.074645184 0.011403592
0.036918242 0.074945115 0.010906797
0.03489757 0.075247206 0.010410006
0.032870565 0.075548314 0.0099132098
0.030802507 0.075801253 0.0096657285
0.029258469 0.0760037 0.0094177565
0.027679423 0.076155819 0.0094190333
0.025624733 0.07688491 0.0094288019
0.024045695 0.077037036 0.0094300788
-0.012798646 0.080586381 0.0094600543
-0.014377687 0.0807385 0.0094613312
-0.01648308 0.080941327 0.0094630439
-0.018639173 0.08061789 0.0094566988
-0.020744566 0.080820717 0.0094584115
-0.022840248 0.080915175 0.0099585168
-0.024929594 0.081010558 0.010458658
-0.026488872 0.081053339 0.010958333
-0.028051758 0.081151001 0.011208835
-0.029978734 0.081107698 0.011456926
-0.03175652 0.08092688 0.011453029
0.038560834 0.076265156 0.011428038
0.036850262 0.076781996 0.011434808
0.034948479 0.07714121 0.01143902
0.033109736 0.077287614 0.010773324
0.03169813 0.077703007 0.011112095
0.029817417 0.077799775 0.010695635
0.027752599 0.078053921 0.010448135
0.025715057 0.078359209 0.0099513773
0.023641724 0.078614183 0.009703869
0.021566076 0.078869425 0.009456397
0.019511387 0.079598516 0.0094661657
0.017405998 0.079801343 0.0094678774
0.01530061 0.080004171 0.0094695901
0.013195218 0.080206998 0.0094713019
0.011616175 0.080359116 0.0094725788
0.010037132 0.080511235 0.0094738854
0.0079317391 0.080714062 0.0094755972
0.0058263508 0.080916889 0.0094773099
0.0037209603 0.081119716 0.0094790217
0.0016155702 0.081322543 0.0094807334
-0.00048982556 0.081525311 0.0094824452
-0.002595216 0.081728138 0.009484157
-0.0047006062 0.081930965 0.0094858697
-0.0062796492 0.082083084 0.0094871465
-0.0079093967 0.081708938 0.0094803665
-0.010014787 0.081911765 0.0094820783
-0.01212018 0.082114533 0.00948379
-0.014228543 0.082207136 0.0099838851
-0.016330842 0.082409628 0.0099855885
-0.018429769 0.082502879 0.010485682
-0.020528967 0.082705088 0.010487379
-0.022618761 0.082795843 0.010987458
-0.024702204 0.082887582 0.011487544
-0.026271958 0.083038807 0.011488827
-0.027892126 0.082666792 0.011482066
0.03457645 0.078761183 0.011463494
0.033529941 0.078861974 0.01146432
0.031960186 0.079013199 0.011465603
0.029867183 0.079214849 0.011467316
0.027824583 0.079939686 0.011477014
0.025762163 0.080194391 0.01122952
0.023726543 0.080503397 0.01073284
0.02165723 0.080759563 0.010485373
0.019610696 0.081068829 0.0099887075
0.017508395 0.081271321 0.0099904118
0.015406105 0.081473865 0.0099921171
0.01330381 0.081676356 0.0099938205
0.011727085 0.081828266 0.0099951215
0.010150368 0.081980176 0.0099963928
0.0080480743 0.08218272 0.009998098
0.005945778 0.082385212 0.0099998023
0.0038434858 0.082587756 0.010001537
0.0017411883 0.082790248 0.010003241
-0.00036110403 0.082992792 0.010004946
-0.0024634013 0.083195284 0.01000665
-0.0045656958 0.083397828 0.010008356
-0.0061424142 0.083549738 0.010009657
-0.0077191391 0.083701596 0.010010927
-0.0098307487 0.083792932 0.010510978
-0.011929951 0.083995149 0.010512705
-0.014032422 0.084083989 0.011012713
-0.016128523 0.084285922 0.011014433
-0.018221565 0.084375411 0.011514469
-0.020314567 0.084577061 0.011516181
-0.022457983 0.084255472 0.011509878
-0.024027739 0.084406696 0.011511131
0.025359541 0.081761248 0.011503171
0.023648979 0.082278088 0.011509942
0.021747192 0.082637303 0.011514182
0.019707141 0.082949035 0.011017544
0.017611045 0.083150968 0.011019234
0.015514941 0.083352894 0.011020953
0.013591016 0.083400674 0.010853739
0.012198615 0.083809972 0.011192407
0.010274684 0.083857693 0.011025192
0.0081785861 0.084059678 0.011026912
0.006082477 0.084261551 0.011028601
0.0039863759 0.084463485 0.011030321
0.0018902742 0.08466541 0.01103201
-0.00020582872 0.084867343 0.01103373
-0.0023019311 0.085069276 0.01103542
-0.0043980326 0.085271202 0.011037139
-0.0059701116 0.085422635 0.011038428
-0.0075481548 0.085517056 0.011288844
-0.0096479049 0.085661709 0.011539713
-0.011583301 0.085672095 0.011538591
-0.013884325 0.08554177 0.011535092
-0.015977332 0.08574336 0.011536804
0.019805405 0.084408492 0.011539912
0.017712401 0.084610142 0.011541594
0.015619394 0.08481174 0.011543306
0.01404964 0.084962957 0.01154459
0.012479886 0.085114181 0.011545873
0.010386877 0.085315831 0.011547556
0.0082938699 0.085517429 0.011549268
0.0062008644 0.085719079 0.01155098
0.0041078595 0.085920729 0.011552663
0.0065539884 -0.072359338 0.0061406964
0.0049703037 -0.072206803 0.0061419839
0.002648853 -0.072338283 0.0061384924
0.00069628219 -0.072327778 0.006137331
-0.001415297 -0.072124332 0.0061390586
-0.0035268858 -0.071920954 0.0061407848
-0.0051105688 -0.071768351 0.0061420733
-0.0066942573 -0.071615815 0.0061433609
-0.0088058459 -0.071412429 0.0061450577
-0.010917425 -0.071208984 0.0061467849
-0.013029008 -0.071005538 0.0061485125
-0.015089737 -0.070274286 0.0061582867
-0.017201321 -0.0700709 0.0061600134
0.016259536 -0.071163401 0.0061652791
0.01467585 -0.071010798 0.0061665676
0.013092157 -0.070858262 0.0061678551
0.011298607 -0.071040645 0.0061639538
0.009346039 -0.071030088 0.0061627924
0.0072344504 -0.070826702 0.0061645191
0.0051228674 -0.070623256 0.0061662169
0.003011283 -0.07041987 0.0061679436
0.00084884441 -0.070744298 0.0061615929
-0.0012627349 -0.070540853 0.0061632907
-0.0033743181 -0.070337407 0.0061650183
-0.0049580066 -0.070184872 0.0061663054
-0.014937175 -0.068690807 0.0061825491
-0.017048759 -0.068487421 0.0061842455
-0.019160341 -0.068283975 0.0061859731
-0.020744031 -0.068131439 0.0061872606
-0.022276863 -0.06745103 0.0061966265
0.020686118 -0.069458872 0.0061941948
0.018892562 -0.069641262 0.0061902637
0.01694 -0.069630697 0.0061891028
0.014828407 -0.069427319 0.0061908294
0.013244728 -0.069274716 0.0061921179
0.011661036 -0.06912218 0.006193405
0.0094985962 -0.069446601 0.0061870245
0.0073870127 -0.069243215 0.0061887512
0.0058033261 -0.06909062 0.0061900397
-0.024235882 -0.065664105 0.0062225857
-0.026347464 -0.06546066 0.0062243128
-0.02845905 -0.065257274 0.0062260395
-0.03057063 -0.065053828 0.0062277373
-0.032682218 -0.064850442 0.006229464
-0.034742948 -0.06411919 0.006239268
-0.036326632 -0.063966595 0.0062405569
0.025112707 -0.067754351 0.0062230807
0.023319157 -0.067936741 0.0062191496
0.021366578 -0.067926235 0.0062179882
0.019254996 -0.06772279 0.0062197149
0.017092559 -0.068047218 0.0062133349
-0.034590386 -0.062535711 0.0062635005
-0.036701966 -0.062332265 0.0062652277
-0.038285654 -0.062179726 0.0062665152
-0.039818488 -0.06149932 0.0062758811
0.029539289 -0.066049889 0.0062519656
0.02774574 -0.066232219 0.0062480355
0.025793167 -0.066221714 0.0062468736
0.023681585 -0.066018268 0.0062486012
0.021570001 -0.06581489 0.0062503279
0.019935455 -0.066190153 0.0062435381
-0.036498547 -0.060220912 0.0062975381
-0.038082235 -0.060068373 0.0062988256
-0.039665915 -0.059915777 0.0063001141
-0.041584592 -0.059553426 0.0063044159
-0.043310333 -0.059031986 0.0063112057
0.031854291 -0.064141922 0.0062825792
0.030219752 -0.064517193 0.0062757898
0.028108168 -0.064313807 0.0062774862
0.026155595 -0.064303309 0.0062764138
0.023834152 -0.064434789 0.0062728333
-0.041574087 -0.057601038 0.0063341502
-0.043685675 -0.057397656 0.0063358769
-0.045604333 -0.057035245 0.0063401801
-0.047330089 -0.056513805 0.0063469699
0.03522509 -0.062335707 0.0063123135
0.033431526 -0.06251809 0.0063083824
0.032006856 -0.062558442 0.0063068112
0.03042317 -0.062405843 0.0063080997
0.02878863 -0.06278117 0.006301309
-0.043675162 -0.055445272 0.0063656708
-0.045593835 -0.055082858 0.0063699144
-0.047705419 -0.054879475 0.0063716411
-0.049624085 -0.054517064 0.0063759442
-0.051349834 -0.053995624 0.006382734
0.037540086 -0.0604278 0.0063429261
0.035905551 -0.060803071 0.0063361367
0.033793956 -0.060599685 0.0063378336
0.032159418 -0.060974956 0.0063310433
0.031103628 -0.060873203 0.0063319225
-0.04596917 -0.053448528 0.0063945856
-0.04755285 -0.053295933 0.0063958745
-0.04961358 -0.052564681 0.0064056786
-0.051725164 -0.052361295 0.0064074052
-0.05364383 -0.051998883 0.0064116782
0.039753377 -0.059575569 0.0063573536
0.038169693 -0.05942297 0.0063586421
0.036058106 -0.059219588 0.0063603688
0.034474429 -0.059066989 0.0063616568
-0.049988914 -0.050930347 0.0064303502
-0.051572602 -0.050777812 0.0064316373
-0.053684182 -0.050574366 0.0064333649
0.042386409 -0.058053434 0.0063823387
0.04043385 -0.058042873 0.0063811773
0.038322255 -0.057839487 0.006382904
0.036687717 -0.058214758 0.0063761142
-0.05142004 -0.049194265 0.0064558703
-0.053531624 -0.048990883 0.006457597
-0.055115305 -0.048838284 0.006458885
-0.05612025 -0.048208784 0.0064678108
0.046494965 -0.05596314 0.0064168521
0.044860426 -0.056338411 0.0064100623
0.042748846 -0.056134965 0.0064117899
0.040637266 -0.055931523 0.0064135175
0.039002713 -0.05630685 0.0064067268
-0.051795375 -0.047559936 0.0064805415
-0.053328201 -0.04687953 0.0064899074
-0.054911893 -0.046726994 0.0064911945
-0.056495581 -0.046574395 0.006492483
-0.058556311 -0.045843143 0.0065022875
0.047016416 -0.054237559 0.0064435345
0.045063842 -0.054227058 0.0064424025
0.043111276 -0.05421656 0.0064413003
-0.053703539 -0.0452452 0.0065145781
-0.054759331 -0.045143448 0.0065154573
-0.056292158 -0.044463042 0.0065248227
-0.058403745 -0.044259656 0.0065265493
-0.060515326 -0.044056214 0.0065282471
-0.062048163 -0.043375868 0.0065376116
0.049013384 -0.051943883 0.0064798044
0.047378849 -0.05231915 0.0064730151
0.045426279 -0.052308593 0.0064719133
-0.056667496 -0.042828713 0.0065494943
-0.058393244 -0.042307332 0.0065563424
-0.060311913 -0.041944921 0.0065605859
-0.062423494 -0.041741479 0.0065622837
-0.063956328 -0.04106107 0.0065716789
0.051328395 -0.050035916 0.0065104179
0.049693849 -0.050411243 0.0065035978
0.047582265 -0.050207801 0.006505325
-0.06068724 -0.040310532 0.0065852581
-0.062220074 -0.039630126 0.0065946234
-0.064331658 -0.03942674 0.0065963501
-0.065864496 -0.038746335 0.0066057155
0.052587606 -0.048026316 0.0065418789
0.05148096 -0.048452433 0.00653465
0.049897268 -0.048299894 0.0065359375
0.047944695 -0.048289392 0.0065348353
-0.064321153 -0.037474357 0.0066261441
-0.066239819 -0.037111945 0.0066303876
-0.067772664 -0.036431599 0.0066397521
0.053268064 -0.046493679 0.0065656714
0.051684376 -0.04634108 0.0065669604
0.050100684 -0.046188541 0.0065682475
0.048466139 -0.046563812 0.0065614581
-0.06450358 -0.035681061 0.0066533312
-0.066036403 -0.035000652 0.0066626966
-0.067955077 -0.034638241 0.0066670002
0.055004317 -0.045062732 0.0065886462
0.053420629 -0.044910137 0.0065899342
0.051836941 -0.044757597 0.0065912222
0.05025325 -0.044605058 0.0065925093
-0.066411734 -0.033366263 0.0066873692
-0.067995429 -0.033213727 0.0066886563
0.055525761 -0.043337151 0.0066153286
0.053573195 -0.043326654 0.0066141668
0.051989503 -0.043174114 0.0066154543
0.050882857 -0.043600228 0.0066082254
-0.066310026 -0.03231059 0.0067035239
-0.067842856 -0.03163024 0.0067129182
-0.069426544 -0.031477645 0.0067142067
0.057840757 -0.041429244 0.0066459114
0.055888191 -0.041418746 0.0066447789
0.053935617 -0.041408245 0.0066436771
-0.067639448 -0.029518891 0.0067452285
-0.069751017 -0.029315447 0.0067469561
0.060155764 -0.039521337 0.0066765239
0.058203191 -0.039510839 0.0066753915
0.056250624 -0.039500277 0.0066742906
-0.067963921 -0.027356694 0.0067779776
-0.069547616 -0.027204154 0.0067792656
-0.071131296 -0.027051557 0.0067805536
-0.072136223 -0.026421998 0.0067895097
0.06215274 -0.037227601 0.0067127948
0.06051819 -0.037602872 0.0067059752
0.058565624 -0.03759237 0.0067049032
-0.069537111 -0.02525177 0.0068090893
-0.070927881 -0.024940204 0.0068128938
-0.072511569 -0.024787666 0.0068141809
0.06267418 -0.03550208 0.0067394762
0.060721613 -0.035491578 0.0067383144
0.059087072 -0.035866849 0.0067315251
-0.069719523 -0.023458414 0.0068362774
-0.070724465 -0.022828853 0.0068452037
-0.072308145 -0.022676315 0.0068464912
-0.074226812 -0.022313902 0.006850794
0.064671159 -0.03320834 0.0067757173
0.063036606 -0.033583611 0.0067689279
0.060925029 -0.033380225 0.0067706248
-0.072297633 -0.020723991 0.0068762843
-0.074216314 -0.020361578 0.0068805278
-0.075749151 -0.019681172 0.0068898932
0.064823709 -0.031624857 0.0067999493
0.063240029 -0.031472322 0.0068012374
0.061128449 -0.031268876 0.006802964
-0.07248006 -0.018930634 0.0069035022
-0.07401289 -0.018250227 0.0069128675
-0.076124482 -0.018046843 0.0069145644
-0.077657312 -0.017366437 0.0069239596
0.06502714 -0.029513508 0.0068322895
0.063443452 -0.029360969 0.0068335766
0.061331879 -0.029157525 0.0068352744
-0.074388236 -0.016615897 0.0069375392
-0.075921051 -0.015935492 0.0069469046
-0.077839732 -0.01557308 0.0069512073
0.065179698 -0.027930023 0.0068565216
0.063596018 -0.027777484 0.0068578091
0.062012326 -0.027624886 0.0068590976
-0.075768486 -0.014351948 0.0069711376
-0.077880077 -0.014148564 0.0069728638
0.06586016 -0.026397385 0.0068803444
0.063748576 -0.026193941 0.0068820417
0.062114034 -0.02656921 0.0068752524
-0.075808838 -0.012927492 0.0069928528
-0.077727519 -0.012565079 0.0069970964
-0.079260349 -0.011884673 0.0070064617
0.067698129 -0.023910765 0.0069194445
0.066063575 -0.024286034 0.0069126543
0.064111009 -0.024275536 0.0069115823
-0.075940408 -0.010606267 0.0070281485
-0.077524088 -0.010453729 0.0070294356
-0.079107784 -0.01030113 0.0070307245
0.068219565 -0.022185244 0.006946126
0.066266991 -0.022174682 0.0069449944
0.064683303 -0.022022143 0.006946282
-0.075787842 -0.0090227826 0.0070523806
-0.077320673 -0.0083423769 0.007061746
-0.078904368 -0.0081898384 0.007063034
0.068582006 -0.020266777 0.006975607
0.066470422 -0.020063331 0.0069773048
-0.077310175 -0.0063900528 0.0070915697
-0.07903593 -0.0058686133 0.0070983889
0.068785422 -0.018155424 0.0070079174
0.066673838 -0.01795204 0.0070096436
-0.077441722 -0.0040688277 0.0071268352
-0.079025432 -0.0039162883 0.0071281227
0.068988845 -0.016044073 0.0070402268
0.067036264 -0.016033573 0.0070391549
-0.077238329 -0.001957535 0.0071591446
-0.078822002 -0.0018049377 0.0071604326
0.070775948 -0.01408532 0.007071279
0.069192253 -0.01393278 0.0070725661
0.067608573 -0.013780183 0.0070738546
-0.077034906 0.00015381549 0.0071914843
-0.078618586 0.00030641429 0.0071927728
-0.080151424 0.00098676002 0.0072021373
0.072035149 -0.01207572 0.0071027395
0.070979357 -0.011973968 0.0071035889
0.069395676 -0.011821429 0.0071048765
-0.076831475 0.002265167 0.0072237942
-0.07841517 0.0024177064 0.0072250823
-0.079998851 0.0025703039 0.0072263703
0.072187722 -0.010492177 0.007126973
0.071131937 -0.010390486 0.0071278512
0.069548227 -0.010237945 0.0071291383
-0.076678917 0.0038486503 0.0072480566
-0.078262612 0.0040012496 0.0072493451
-0.079846293 0.0041537881 0.0072506322
0.072868183 -0.0089595402 0.0071507953
0.071284495 -0.0088070007 0.0071520829
0.070228696 -0.0087052481 0.0071529322
-0.076526344 0.0054321941 0.0072722896
-0.078110039 0.0055847322 0.0072735772
0.073071599 -0.0068481881 0.0071831355
0.071487904 -0.0066956487 0.007184423
-0.076322936 0.0075434856 0.0073046284
-0.077906623 0.0076960842 0.0073059169
-0.079490319 0.0078486232 0.0073072044
0.073275022 -0.0047368966 0.0072154449
0.071691327 -0.0045842975 0.0072167329
-0.077703208 0.0098073762 0.0073382263
-0.079286888 0.0099599734 0.0073395148
0.073478445 -0.002625546 0.0072477846
0.07189475 -0.0024729471 0.0072490731
-0.077499792 0.011918728 0.0073705362
-0.079083458 0.012071325 0.0073718242
0.075265542 -0.00066673144 0.0072788075
0.073681854 -0.00051419338 0.0072800945
-0.077296376 0.014030079 0.0074028764
-0.078880057 0.014182617 0.0074041635
0.0754181 0.00091675221 0.0073030395
0.073885284 0.0015971572 0.0073124347
0.072301582 0.0017496967 0.0073137223
-0.077092953 0.016141431 0.0074351863
-0.078676626 0.016293969 0.0074364739
0.074088693 0.0037085097 0.0073447451
0.072505005 0.0038610478 0.0073460322
-0.076889537 0.018252783 0.007467526
-0.078524075 0.017877512 0.0074607367
0.074292116 0.0058198017 0.0073770541
0.072708413 0.0059724003 0.0073783426
-0.076686114 0.020364074 0.0074998355
0.074444674 0.0074033448 0.0074013169
0.072860993 0.0075558829 0.0074026044
-0.074949868 0.02179502 0.0075228103
-0.076533556 0.021947617 0.0075240983
0.074597247 0.008986827 0.007425549
0.073013544 0.0091393664 0.0074268365
-0.074797295 0.023378562 0.0075470433
-0.07638099 0.0235311 0.0075483304
0.074800655 0.01109818 0.0074578887
0.07321696 0.011250719 0.0074591767
-0.074593879 0.025489854 0.007579382
-0.076177575 0.025642453 0.0075806705
0.074811161 0.013050504 0.0074876822
0.073420383 0.013362071 0.0074914861
0.072364591 0.013463763 0.0074923346
-0.074390464 0.027601207 0.007611692
-0.075974151 0.027753744 0.0076129795
0.074679583 0.01537167 0.0075229472
0.073623806 0.015473421 0.0075238263
0.072568007 0.015575115 0.0075246748
-0.073659137 0.029661709 0.007643593
-0.075611725 0.029672211 0.0076424908
0.074883014 0.01748302 0.0075552873
0.073827215 0.017584713 0.0075561358
0.072243541 0.01773731 0.0075574238
-0.07182119 0.032148331 0.0076826927
-0.073455729 0.031773064 0.0076759029
-0.075039417 0.0319256 0.0076771905
0.075086422 0.019594373 0.0075875977
0.074030638 0.019696064 0.0075884759
0.072446957 0.019848661 0.007589764
0.070914105 0.020529011 0.0075991284
-0.071299739 0.033873852 0.0077093742
-0.073252313 0.033884354 0.0077082422
0.074234061 0.021807415 0.0076207854
0.07265038 0.021959953 0.0076220734
0.071066678 0.022112554 0.0076233614
-0.070937306 0.035792261 0.0077388547
-0.072889887 0.035802819 0.0077377534
0.074386619 0.0233909 0.0076450179
0.072802946 0.023543498 0.0076463064
0.071219243 0.023696037 0.0076475935
-0.070784748 0.037375804 0.0077630877
-0.072368428 0.037528343 0.0077643748
0.072955497 0.025126981 0.0076705683
0.071036823 0.025489394 0.007674871
-0.069048494 0.038806751 0.0077860323
-0.07063219 0.038959287 0.0077873198
-0.072266728 0.03858402 0.0077805305
0.072631024 0.027289178 0.0077033173
0.071047328 0.027441718 0.0077046049
0.069514491 0.028122125 0.0077139707
-0.068476193 0.041060138 0.0078207916
-0.070269756 0.040877756 0.0078168605
0.071250752 0.029553069 0.0077369148
0.069332078 0.029915482 0.007741218
-0.066530071 0.042826008 0.0078489846
-0.068113774 0.042978548 0.0078502726
-0.069748305 0.042603277 0.0078434525
0.070926264 0.031715266 0.0077696941
0.069342576 0.031867806 0.0077709816
0.067809746 0.032548212 0.007780347
-0.066326663 0.044937361 0.0078812949
-0.067751326 0.044897012 0.0078797834
0.069545999 0.033979159 0.0078032915
0.067627326 0.03434157 0.0078075947
-0.065595336 0.046997804 0.0079131946
-0.067179039 0.047150403 0.0079144835
0.069170669 0.035613548 0.0078279637
0.067637824 0.036293894 0.0078373281
0.065719172 0.036656305 0.0078416308
-0.06375739 0.049484428 0.0079522943
-0.065391928 0.049109157 0.007945505
-0.067026459 0.048733886 0.0079387156
0.067648329 0.038246278 0.0078671221
0.06572967 0.038608689 0.0078713661
0.06419684 0.039289095 0.0078807306
-0.062498178 0.051494025 0.0079837851
-0.063604832 0.051067911 0.0079765562
-0.065029494 0.051027562 0.0079750456
0.065933086 0.040719982 0.0079037044
0.063821509 0.040923424 0.0079054022
0.062288675 0.04160383 0.0079147974
-0.060183175 0.053401992 0.0080143688
-0.061817717 0.053026725 0.0080075795
-0.063452259 0.052651454 0.0080007892
0.065557763 0.042354371 0.007928377
0.063974068 0.042506911 0.0079296641
0.062390387 0.042659506 0.0079309531
-0.059553571 0.054406762 0.0080301138
-0.061137252 0.054559361 0.0080314018
0.063933715 0.043931425 0.0079513807
0.062015057 0.044293836 0.0079556238
-0.057448439 0.055979747 0.0080555081
-0.059241991 0.05579742 0.0080515482
0.063751303 0.045724783 0.0079785688
0.062218469 0.046405189 0.0079879342
0.060634777 0.046557728 0.0079892222
-0.055133428 0.057887711 0.0080861207
-0.056926988 0.057705328 0.0080821598
0.061893992 0.048567384 0.0080206832
0.060838204 0.048669077 0.0080215614
0.059447426 0.048980642 0.0080254255
-0.052818432 0.059795622 0.0081167333
-0.054611981 0.059613235 0.0081127724
0.060990762 0.050252561 0.0080457935
0.059457928 0.05093297 0.0080551589
0.05734634 0.051136412 0.0080568865
0.05581351 0.051816821 0.0080662519
-0.050503429 0.061703525 0.0081473161
-0.052456006 0.061714027 0.0081461845
0.057356842 0.053088736 0.0080866795
0.055438172 0.053451151 0.0080909235
0.053905349 0.054131556 0.0081002889
-0.048506454 0.063997261 0.0081835873
-0.050140992 0.06362199 0.0081767971
-0.051775537 0.063246727 0.0081699779
0.055448681 0.055403475 0.0081207165
0.053530015 0.055765886 0.0081249597
0.051997181 0.056446292 0.008134325
-0.045663558 0.065854326 0.0082137603
-0.047825996 0.065529898 0.0082073808
-0.049460534 0.065154634 0.0082005905
0.053540513 0.05771827 0.0081547834
0.051621854 0.058080681 0.0081589976
-0.042292759 0.06766054 0.0082434947
-0.043927297 0.067285269 0.0082367053
-0.045510992 0.067437805 0.0082379933
-0.047145538 0.067062542 0.0082312031
0.051632356 0.060033005 0.0081888204
0.0499066 0.060554445 0.0081956405
-0.040187627 0.069233522 0.008268889
-0.042140193 0.06924402 0.0082677566
-0.043774743 0.068868756 0.0082609672
-0.044830535 0.068970449 0.0082618156
0.049866244 0.061978903 0.0082172956
0.047754668 0.062182344 0.0082190232
-0.03829236 0.070471585 0.0082889749
-0.039876051 0.070624121 0.0082902629
-0.041459735 0.070776664 0.00829155
0.049440056 0.063085422 0.0082338899
0.047714315 0.063606858 0.0082407398
0.045795646 0.063969269 0.0082449829
0.044262812 0.064649679 0.0082543483
0.04320702 0.064751372 0.0082551967
-0.035659328 0.071993724 0.0083139595
-0.037611898 0.072004221 0.0083127981
-0.039564475 0.072014719 0.0083116954
0.045420311 0.065603606 0.0082696546
0.044364508 0.065705299 0.008270503
0.042831685 0.066385701 0.0082798684
0.040913019 0.066748112 0.0082841711
0.039187275 0.067269549 0.0082909614
-0.03155078 0.074083954 0.0083484724
-0.033185326 0.073708683 0.0083416831
-0.035296906 0.073912129 0.0083434107
-0.03693144 0.073536858 0.0083366204
0.040872667 0.068172634 0.0083058272
0.038811937 0.068903886 0.0083156321
0.036893271 0.069266297 0.0083199348
0.035167523 0.069787674 0.0083267242
-0.026596295 0.075737633 0.0083769495
-0.028917747 0.075606093 0.008373457
-0.030870313 0.07561665 0.0083722966
-0.033032753 0.07529223 0.0083659459
0.036852919 0.070690811 0.0083415918
0.034792192 0.071422063 0.0083513968
0.032680605 0.071625508 0.0083530936
0.03061988 0.072356761 0.0083628986
0.029036188 0.072509296 0.0083641857
-0.019002333 0.077137016 0.0084032593
-0.021113915 0.077340461 0.0084049869
-0.023276353 0.077016033 0.0083986064
-0.024860041 0.077168576 0.0083998945
-0.026284715 0.077128232 0.008398382
-0.028606173 0.076996692 0.0083948309
0.032833163 0.073208988 0.0083773555
0.030579524 0.073781215 0.0083846133
0.028660854 0.074143626 0.0083888574
0.027077174 0.074296229 0.0083901454
0.025686406 0.07460779 0.0083940094
0.023432748 0.075180016 0.0084012374
-0.010352581 0.078434706 0.0084287208
-0.012464167 0.078638092 0.0084304176
-0.014626606 0.078313671 0.0084240679
-0.016738188 0.078517117 0.0084257945
-0.018849771 0.078720503 0.0084274914
-0.020802338 0.07873106 0.0084264204
-0.023123791 0.07859952 0.0084228385
0.025646053 0.076032311 0.0084156953
0.023392396 0.07660453 0.008422954
0.021473736 0.076966941 0.0084271971
0.019555068 0.07732936 0.0084314998
0.017301418 0.077901579 0.008438698
0.015189839 0.078105025 0.0084404256
0.013078259 0.078308471 0.0084421532
0.010966667 0.078511856 0.0084438501
0.0093829874 0.078664452 0.0084451381
0.0077992952 0.078816995 0.0084464252
0.0056368569 0.078492567 0.0084400754
0.0035252727 0.078695953 0.0084418021
0.0016066043 0.079058364 0.0084461048
-0.00064704003 0.079630651 0.0084533039
-0.0028094763 0.07930623 0.0084469533
-0.0049210573 0.079509668 0.0084486511
-0.0065047476 0.079662211 0.0084499381
-0.008088436 0.079814747 0.0084512262
-0.010200017 0.080018193 0.0084529538
-0.012152591 0.08002869 0.0084518511
-0.014474037 0.07989721 0.0084483009
-0.016585624 0.080100596 0.0084500276
0.019514713 0.078753874 0.0084531568
0.017403126 0.07895726 0.0084548835
0.015291546 0.079160705 0.0084565803
0.013179963 0.079364084 0.008458307
0.01106838 0.079567529 0.0084600346
0.0094846869 0.079720072 0.0084613226
0.0079010082 0.079872668 0.0084626107
0.0057894192 0.080076054 0.0084643075
0.0036778385 0.080279499 0.0084660351
0.0015662516 0.080482885 0.0084677618
-0.00054532947 0.080686323 0.0084694587
-0.0026569141 0.080889709 0.0084711853
-0.004768495 0.081093155 0.0084729129
-0.0063521857 0.081245691 0.0084742
0.017292192 -0.067211069 0.0052261148
0.015123423 -0.067536414 0.0052197292
0.025641887 -0.063741051 0.0052844943
0.028282639 -0.06221446 0.0053095003
0.031873792 -0.060067028 0.0053446153
-0.047542796 -0.052416556 0.0054091783
0.03578392 -0.058306526 0.0053739962
0.033985101 -0.058489453 0.0053700344
-0.049314078 -0.050464928 0.0054377965
0.036415376 -0.057298753 0.0053897793
-0.063688345 -0.036969487 0.0056341081
-0.065449089 -0.033059791 0.0056925667
0.05160255 -0.042020515 0.005632678
-0.06577453 -0.030891284 0.0057254317
0.053503361 -0.040778883 0.0056528654
0.055825152 -0.038865365 0.0056835758
0.054185823 -0.039241698 0.0056767473
-0.067056835 -0.027561987 0.0057753492
0.058146946 -0.036951847 0.0057142559
-0.066852815 -0.025444465 0.0058077709
-0.068247683 -0.025131993 0.0058116219
-0.068237141 -0.023173926 0.0058414629
-0.069774456 -0.022491502 0.0058508599
-0.070150889 -0.020852346 0.0058756275
-0.071688212 -0.020169979 0.0058850236
-0.071871161 -0.018371368 0.0059123132
-0.07378494 -0.016049843 0.0059464471
-0.073774397 -0.014091778 0.0059763175
-0.075209729 -0.01235059 0.0060019111
0.063708596 -0.023595905 0.0059215319
-0.075056724 -0.010762478 0.0060262349
0.063861616 -0.022007793 0.0059458553
-0.075188667 -0.0084344577 0.0060616527
0.064595073 -0.019941259 0.0059778346
-0.076715462 -0.0057940236 0.0061008898
0.064799085 -0.017823737 0.0060102567
-0.076562434 -0.0042058546 0.006125214
0.066642441 -0.015329823 0.0060494784
0.065003082 -0.015706215 0.0060426788
-0.0747701 -0.0022413491 0.0061563374
-0.07635843 -0.0020883335 0.0061576366
0.066795439 -0.013741652 0.0060738027
0.065207101 -0.013588634 0.0060751019
-0.074566096 -0.00012382826 0.0061887596
-0.076154418 2.9187773e-05 0.0061900588
0.068058334 -0.011726161 0.006105369
0.066999458 -0.01162413 0.0061062248
-0.074362062 0.0019937514 0.0062211822
-0.075950406 0.0021467095 0.0062224809
0.068211354 -0.01013799 0.0061296634
0.067152463 -0.01003602 0.0061305491
-0.074209057 0.0035818627 0.006245506
-0.075797394 0.0037348806 0.0062467754
0.068893813 -0.0086008664 0.0061535742
0.067305483 -0.0084478492 0.0061548436
-0.074056037 0.0051700338 0.0062698005
-0.075644366 0.0053230496 0.0062710997
0.070686162 -0.0066363621 0.0061846972
0.069097817 -0.0064833439 0.0061859665
0.067254134 -0.0061330567 0.0058567426
-0.075440362 0.0074405712 0.0063035218
0.070890173 -0.0045187809 0.0062171202
0.069301836 -0.0043658232 0.0062183887
-0.075765789 0.0096090781 0.0063363565
0.071094193 -0.0024012597 0.0062495125
0.069505863 -0.0022482437 0.0062508117
-0.075561784 0.011726599 0.0063687786
0.07182765 -0.00033478459 0.0062815207
0.069709875 -0.0001307221 0.0062832339
-0.075357765 0.01384412 0.0064012012
0.071502231 0.0018337821 0.0063143568
0.069913886 0.0019867991 0.0063156555
-0.075153731 0.015961701 0.0064336238
0.071706235 0.0039513032 0.0063467789
0.070117898 0.0041043209 0.0063480777
-0.074949726 0.018079221 0.006466046
0.071910247 0.0060688243 0.0063792011
0.07032191 0.0062218416 0.0063804998
-0.074745722 0.020196743 0.0064984681
0.07206326 0.0076569952 0.0064035254
0.07047493 0.007810011 0.0064047948
-0.074063271 0.021733869 0.0065223491
0.07221628 0.0092451051 0.0064278189
0.070627943 0.0093981223 0.0064291181
-0.072321922 0.023169022 0.0065453746
-0.073910251 0.02332204 0.0065466734
0.072420299 0.011362686 0.006460242
0.070831947 0.011515644 0.0064615402
-0.072117902 0.025286544 0.0065777968
-0.073706225 0.02543956 0.0065790657
0.071035966 0.013633225 0.0064939633
0.069041856 0.013846037 0.0059958249
-0.071913891 0.027404064 0.0066102189
-0.07350222 0.027557081 0.0066114878
0.071239986 0.015750745 0.0065263854
0.069651648 0.015903762 0.0065276548
-0.071709894 0.029521586 0.0066426406
0.070914544 0.017919254 0.0065592201
0.06985566 0.018021284 0.006560077
0.067818664 0.018235499 0.0062286453
