# .PCD v0.7 - Point Cloud Data file format
VERSION 0.7
FIELDS x y z
SIZE 4 4 4
TYPE F F F
COUNT 1 1 1
WIDTH 1287
HEIGHT 1
VIEWPOINT 0 0 0 1 0 0 0
POINTS 1287
DATA ascii
0.034814484 0.087396383 0.010976969
0.0362904 0.08763656 0.011092519
0.037957255 0.088434115 0.011837473
-0.095466495 0.025218759 0.01192536
-0.094120488 0.026063496 0.011493426
-0.09225712 0.026705489 0.011066444
0.037190203 0.086124822 0.011003739
0.038959119 0.087030284 0.01150181
0.040734015 0.087817185 0.012001319
-0.096396267 0.022465326 0.011985079
-0.094645984 0.023463087 0.011204099
-0.093130723 0.024349719 0.011089974
-0.092301257 0.025382034 0.011081873
0.038222544 0.085295528 0.011018654
0.039922472 0.08536312 0.01102624
0.04173582 0.085926339 0.011695253
0.043395597 0.086685352 0.012170731
-0.095737442 0.020519715 0.011233469
-0.094084449 0.021577019 0.011118034
0.041046068 0.083876573 0.011049391
0.042550553 0.084105819 0.011196973
0.044196613 0.084587194 0.011431557
0.045775238 0.085670292 0.012051627
-0.097047932 0.018097557 0.011644572
-0.095169075 0.018852884 0.01114489
0.04343944 0.082803182 0.01107389
0.044939429 0.083084494 0.011077957
0.046630163 0.084111847 0.011740888
-0.095913596 0.016393377 0.011170266
-0.094813399 0.017102029 0.01116734
0.046138864 0.08180242 0.011099054
0.047729883 0.082329094 0.011100676
0.049536407 0.082984917 0.011879718
-0.09676484 0.013597503 0.011399142
-0.095116228 0.014478856 0.011196855
0.04877764 0.080638073 0.01112585
0.050482545 0.081197508 0.011377675
0.052333694 0.081726395 0.012030649
-0.097761169 0.010658362 0.01122892
-0.096069962 0.011706159 0.011224899
0.049946729 0.07927423 0.011147762
0.051270273 0.079230137 0.011154824
0.053058311 0.079888001 0.011519548
-0.0989483 0.0080452301 0.011420618
-0.09698914 0.0089764744 0.011252629
0.052218765 0.077873662 0.011175551
0.053803109 0.078339778 0.011320738
0.055519413 0.07916449 0.011801645
-0.098156936 0.0063626841 0.011499971
-0.096682541 0.0072438917 0.011274626
0.054832734 0.076792911 0.011201235
0.056509215 0.077399574 0.011202337
0.058321506 0.078107446 0.01186965
-0.099015117 0.0036483342 0.01216284
-0.097309075 0.0043498678 0.011305731
-0.096117876 0.0053039319 0.011300359
0.057481151 0.07550402 0.01122955
0.059172831 0.076269671 0.011371742
-0.098534167 0.0019514749 0.011953088
-0.096702494 0.0026735233 0.011328566
0.058604747 0.07401748 0.011252699
0.0598897 0.074471518 0.011253671
0.061667155 0.075513572 0.011886578
-0.099010199 -0.00055673212 0.011688691
-0.09744703 0.00021408043 0.011353942
-0.09634684 0.00092272914 0.011351016
0.059343711 0.072999157 0.011268375
0.060661715 0.072789699 0.011277349
0.062543057 0.073587328 0.011693936
-0.098202601 -0.0025762573 0.011383187
-0.096649639 -0.00170049 0.011380531
0.061770163 0.071262211 0.011300893
0.06334056 0.07164222 0.011404159
0.06519971 0.072234951 0.011931396
-0.097430557 -0.0042581335 0.01140688
-0.096239381 -0.0033040768 0.011401508
0.064145878 0.069990709 0.011327662
0.066060595 0.070788182 0.011327692
-0.09867695 -0.0068664947 0.011431563
-0.097123995 -0.0059907278 0.011428893
0.065241627 0.068579577 0.011349766
0.066832624 0.069106296 0.011351386
-0.097750507 -0.0088847522 0.011459998
-0.096404918 -0.0082670646 0.011459367
0.066104665 0.067143105 0.011371013
0.067759067 0.067088045 0.011379821
0.069539249 0.067825265 0.012046655
-0.098506093 -0.011675036 0.011489242
-0.096824095 -0.010902955 0.011488432
0.06873101 0.065192491 0.011407033
0.070313498 0.065986224 0.011976954
-0.097734064 -0.013356917 0.011512951
-0.096052058 -0.012584832 0.011512126
0.069793925 0.063542351 0.011431799
0.071216814 0.064436316 0.012053316
-0.096962035 -0.015038797 0.011536629
-0.095616437 -0.014421109 0.011535984
0.070902355 0.062014922 0.011455357
0.072207108 0.062603123 0.011565967
-0.09771762 -0.017829077 0.011565888
-0.096035615 -0.017057 0.011565063
-0.095180802 -0.016257383 0.011559857
0.07317441 0.060614299 0.011483103
0.074897774 0.061341092 0.012260892
-0.096945576 -0.019510956 0.011589581
-0.095427185 -0.018678216 0.011587271
0.073946416 0.058932479 0.011506796
0.075646304 0.059764072 0.011905412
-0.096173547 -0.021192838 0.011613275
-0.094982371 -0.020238776 0.011607903
0.074866585 0.057434935 0.011529044
0.076517344 0.058161404 0.011778638
-0.095247112 -0.023211094 0.01164171
0.076072305 0.055632148 0.011556328
0.077326916 0.056004424 0.011558115
0.079008922 0.056776509 0.011557304
-0.094640531 -0.024887435 0.011664545
0.078159593 0.054486193 0.011580206
0.079780951 0.055094626 0.011580998
-0.093748569 -0.026697509 0.011690334
0.078898549 0.053467866 0.011595882
0.080598474 0.053535458 0.011603468
-0.094795041 -0.029519536 0.011718521
-0.093012981 -0.028585153 0.011716279
0.081815816 0.051548947 0.011632976
-0.093991309 -0.031492312 0.011745815
-0.09283182 -0.030247351 0.011736842
0.083078623 0.049685128 0.011661276
0.083677858 0.047788192 0.011686649
0.085196257 0.048620936 0.011684279
-0.092370056 -0.035024203 0.011795565
0.084072597 0.04596711 0.011710102
-0.09139812 -0.03691975 0.011822777
-0.089743704 -0.036974818 0.011831615
0.083530731 0.043376639 0.011738071
0.084876314 0.043994326 0.011737397
-0.090626083 -0.038601633 0.011846471
-0.089280494 -0.037983943 0.01184584
0.08564835 0.042312443 0.01176109
-0.089846186 -0.040047154 0.011867426
0.086420357 0.04063062 0.011784784
0.087346815 0.038612369 0.011813218
0.08845526 0.037084881 0.011836777
0.089227282 0.035403058 0.011860454
0.090909265 0.036175136 0.01185963
0.090153687 0.033384796 0.01188889
0.090866432 0.031166663 0.01191863
0.091515772 0.029530268 0.011941183
0.091250993 0.026558004 0.011975018
0.092287809 0.027848395 0.011964876
0.09177763 0.024967086 0.011996431
0.093214221 0.025830185 0.01199331
0.091449432 0.022576606 0.012023065
0.092304245 0.023376225 0.012017844
0.09398625 0.024148304 0.012017004
0.09206707 0.021231104 0.012042032
0.093076266 0.02169434 0.012041522
0.094758295 0.022466429 0.012040712
0.092657097 0.019058457 0.012070602
0.094002701 0.019676143 0.012069956
-0.072416849 -0.058750615 0.012174637
-0.07107126 -0.058132924 0.012174007
0.091901541 0.016268115 0.012099876
0.093092732 0.017222183 0.012094459
0.094774731 0.017994264 0.012093665
0.090655148 0.013659758 0.012124544
0.091969036 0.014568342 0.012120283
0.093864746 0.015540295 0.012118168
0.091384284 0.01244418 0.012642554
0.09244965 0.013029655 0.012740912
-0.049255528 -0.084364153 0.012591874
0.091848239 -0.027535584 0.0126174
0.089319676 -0.031343412 0.012649915
0.090540811 -0.030201092 0.012642443
0.084234826 -0.04475465 0.012783326
0.083186999 -0.046375923 0.012797308
-0.05162818 0.077839985 0.0096626831
-0.0499391 0.0786153 0.0096618673
-0.047912225 0.079545721 0.0096608885
-0.046223149 0.080321036 0.0096600726
-0.044689123 0.081434138 0.0096544977
-0.042662222 0.082364507 0.0096535049
-0.040635347 0.083294928 0.0096525252
-0.039007179 0.08390595 0.0096533457
-0.037102133 0.084507778 0.0096556544
-0.035075232 0.085438147 0.0096546756
-0.033386152 0.08621347 0.0096538449
-0.031697076 0.086988784 0.00965303
-0.030008022 0.087764151 0.0096522132
-0.061170131 0.071006268 0.0096963113
-0.059818845 0.071626484 0.0096956594
-0.05778088 0.072889142 0.0096907988
-0.056257948 0.073670007 0.0096891057
-0.054723922 0.074783102 0.0096835308
-0.052697044 0.07571353 0.0096825361
-0.051007967 0.076488845 0.0096817212
-0.049442112 0.077309854 0.0096797748
-0.047447067 0.078532368 0.0096751666
-0.045757987 0.079307683 0.0096743517
-0.044068906 0.080083005 0.0096735209
-0.04219706 0.081351154 0.009667783
-0.039910998 0.082073338 0.0096705407
-0.038165443 0.082547419 0.009673574
-0.036481921 0.083156645 0.0096746916
-0.03445502 0.084087014 0.0096736988
-0.03276594 0.084862329 0.009672883
-0.031076886 0.085637704 0.0096720671
-0.029049989 0.086568065 0.0096710883
-0.027360907 0.087343387 0.0096702725
-0.025679756 0.087881394 0.0096722338
-0.023489902 0.088711344 0.0096732229
-0.02180082 0.089486659 0.0096724071
-0.02011174 0.090261973 0.0096715922
-0.017929789 0.090854555 0.0096753724
-0.016578527 0.091474824 0.0096747205
-0.067671716 0.065568089 0.0097284717
-0.066320457 0.06618835 0.0097278198
-0.06444864 0.067456558 0.009722081
-0.062576793 0.068724707 0.0097163282
-0.060887709 0.069500029 0.0097155124
-0.059383769 0.070424087 0.0097120451
-0.057326812 0.071543552 0.0097089587
-0.055637732 0.072318867 0.0097081428
-0.054114796 0.073099732 0.0097064348
-0.052076831 0.07436239 0.0097015742
-0.035523888 0.081960559 0.0096935667
-0.033834808 0.082735874 0.009692736
-0.032145727 0.083511189 0.0096919211
-0.030210223 0.084195167 0.0096934102
-0.028274722 0.084879145 0.0096948855
-0.027078517 0.085837193 0.0096894735
-0.024713796 0.086922616 0.0096883178
-0.023024714 0.087697938 0.0096875019
-0.021119667 0.088299766 0.0096898098
-0.019491527 0.08891084 0.0096906293
-0.017309574 0.089503422 0.0096944105
-0.015620495 0.090278737 0.0096935956
-0.070767485 0.062511258 0.0097493036
-0.069067314 0.063618816 0.0097446218
-0.067544378 0.064399682 0.0097429138
-0.065855294 0.065174997 0.0097420979
-0.063828409 0.066105366 0.0097411042
-0.061956577 0.067373574 0.0097353663
-0.073461719 0.059025206 0.0097772013
-0.072044566 0.060125608 0.0097711887
-0.070485063 0.061005019 0.0097685056
-0.068613239 0.062273227 0.0097627668
-0.067079216 0.063386329 0.0097571919
-0.065390147 0.064161643 0.009756376
-0.06403888 0.064781904 0.0097557092
-0.076000929 0.055201426 0.0098098582
-0.074774675 0.05634857 0.0098023685
-0.072932906 0.057427678 0.0097986925
-0.071563154 0.058601655 0.009791581
-0.070540473 0.059343722 0.0097878696
-0.077316225 0.053166311 0.0098274061
-0.075873591 0.054033019 0.0098243002
-0.074184507 0.054808337 0.0098234694
-0.072988309 0.055766385 0.0098180575
-0.081544504 0.048567209 0.0098608788
-0.080348305 0.049525257 0.0098554669
-0.078814276 0.050638359 0.009849892
-0.076972507 0.051717468 0.0098462459
-0.075417653 0.052742757 0.0098418007
-0.074394971 0.053484824 0.0098380744
0.0056117633 0.088574 0.0098186601
0.0069630463 0.089194208 0.0098180082
0.0084970463 0.090307362 0.0098124323
0.010341184 0.09074489 0.0098163765
-0.082967788 0.045787267 0.0098867109
-0.081262097 0.047060963 0.0098800799
-0.079728097 0.04817412 0.0098745041
-0.078531884 0.049132168 0.0098690921
0.006076952 0.087560594 0.0098329391
0.0074282102 0.088180855 0.0098322863
0.0093180109 0.088741638 0.0098350029
0.011299212 0.089548811 0.0098352507
0.013143349 0.089986347 0.0098391799
0.014987479 0.090423875 0.0098431241
0.017014347 0.091354296 0.0098421453
0.018365638 0.091974504 0.0098414933
-0.084294178 0.043419912 0.0099081406
-0.08251372 0.044441674 0.0099048559
-0.080979705 0.045554772 0.009899281
0.010568174 0.08757741 0.0098549416
0.012178594 0.087989487 0.0098580252
0.013763562 0.088635206 0.009858218
0.015452639 0.089410521 0.0098574022
0.017479537 0.09034089 0.0098564243
0.01950641 0.091271311 0.0098554445
0.021012727 0.091553792 0.0098595368
-0.086157747 0.039906234 0.0099404557
-0.085324831 0.040942922 0.0099323308
-0.083765328 0.041822329 0.0099296318
-0.082395598 0.042996362 0.0099225203
0.013215288 0.087156646 0.009872986
0.014228725 0.087621853 0.0098724961
0.016072854 0.088059388 0.0098764403
0.018099746 0.08898975 0.0098754615
0.020327382 0.089705586 0.0098780151
0.021970758 0.090357706 0.0098784119
0.02361414 0.091009825 0.0098788384
-0.087592147 0.036794104 0.0099701695
-0.086089946 0.038199294 0.0099609951
-0.084524095 0.039020307 0.0099590048
-0.08349219 0.040039282 0.0099520553
0.021577537 0.088541359 0.0098979389
0.022906637 0.088497095 0.0099050356
0.024590157 0.089106321 0.0099061532
0.026617065 0.09003669 0.0099051744
-0.088679455 0.034113832 0.0099964682
-0.087309733 0.035287861 0.0099893557
-0.085611418 0.036340088 0.0099853175
-0.084241696 0.037514117 0.009978205
0.02576416 0.087736748 0.009928151
0.027547378 0.088009983 0.0099337315
0.029236462 0.088785298 0.0099329008
-0.089410506 0.032142427 0.010016158
-0.088223539 0.032823626 0.010013984
-0.086700603 0.033604488 0.010012276
0.028721381 0.08664041 0.0099557145
0.030011723 0.087096378 0.0099566979
0.031700809 0.087871693 0.009955883
0.033052061 0.088491961 0.0099552302
-0.090843037 0.029085629 0.010045213
-0.089137331 0.030359332 0.010038597
-0.087603323 0.031472486 0.010033007
-0.086744919 0.032275427 0.010027758
0.03069287 0.085909478 0.0099741006
0.032476064 0.086182773 0.0099796802
0.034354251 0.086928003 0.0099801654
-0.091603637 0.026228227 0.010075229
-0.090233915 0.027402256 0.010068133
-0.088864155 0.028576232 0.01006102
0.033650097 0.084813148 0.010001679
0.035433296 0.085086435 0.010007259
0.037216511 0.08535967 0.010012838
-0.09233468 0.024256824 0.01009492
-0.091147691 0.024937963 0.010092746
-0.089960732 0.025619157 0.010090556
0.036607288 0.083716862 0.010029241
0.037897643 0.08417283 0.010030225
0.039187972 0.084628798 0.010031223
-0.093431249 0.021299694 0.010124471
-0.092061497 0.022473726 0.010117359
-0.090691783 0.023647754 0.010110246
0.038578793 0.082985938 0.010047628
0.040316302 0.083135977 0.01005445
0.042023342 0.083203919 0.010062073
-0.094354279 0.018558545 0.010152306
-0.093158074 0.019516593 0.010146894
-0.091715433 0.020383306 0.010143773
0.041721523 0.081633963 0.010079132
0.043273523 0.082039639 0.010082028
0.044980563 0.082107581 0.010089652
-0.094071887 0.017052354 0.010171507
-0.092548952 0.017833218 0.010169799
0.044198602 0.080603518 0.01010356
0.04578355 0.081249282 0.010103767
-0.094401442 0.014651834 0.010198248
-0.093296617 0.015363433 0.010195305
-0.092264675 0.016382357 0.010188356
0.045235269 0.079770714 0.010118535
0.046558812 0.079560362 0.01012755
0.048126057 0.080007084 0.010130021
-0.095425092 0.011387385 0.010231789
-0.094055355 0.012561359 0.010224678
-0.093014196 0.013857191 0.010214506
0.047516868 0.078364223 0.010146425
0.049223911 0.078432173 0.010154079
0.050961427 0.078582205 0.010160871
-0.095306985 0.0099420659 0.010249453
-0.093782201 0.010778312 0.0102471
0.050352238 0.076939344 0.01017729
0.051876269 0.077420823 0.010179118
-0.095974334 0.0073864362 0.010276357
-0.094654918 0.0082987901 0.01027212
-0.093490563 0.0095489789 0.010263079
0.052801333 0.075984694 0.01020068
0.054353349 0.076390363 0.010203546
-0.09599378 0.0043102894 0.010312632
-0.09529046 0.0054510664 0.010302623
-0.094185628 0.006162731 0.010299665
0.05420655 0.074482679 0.010225363
0.05571286 0.074765161 0.01022947
0.05737425 0.074709803 0.010238337
-0.095581807 0.0027000092 0.0103337
-0.094360121 0.0034243655 0.01033118
0.056791928 0.072923541 0.010256594
0.058326721 0.073347621 0.010259145
-0.095273934 0.00096012541 0.010355793
-0.093922675 0.001580389 0.01035514
0.058094084 0.071359634 0.010281499
0.059107557 0.071824796 0.01028101
0.060120992 0.072290011 0.01028052
-0.095941305 -0.0015955041 0.010382697
-0.094621874 -0.00068315421 0.010378445
0.059888348 0.070302017 0.010302873
0.061423149 0.070726104 0.010305455
-0.096636377 -0.0049817557 0.010419297
-0.095472001 -0.0037316172 0.010410286
-0.094035737 -0.0028065213 0.010406427
0.060840853 0.06893979 0.010323682
0.062502228 0.068884484 0.010332533
0.064008527 0.069166966 0.01033664
-0.096344754 -0.0062110927 0.010435261
-0.094819941 -0.0053749043 0.010432923
-0.093623757 -0.0044167982 0.010427496
0.06338162 0.067325115 0.010355323
0.064966567 0.067970879 0.010355515
-0.095733754 -0.0078391405 0.010457536
-0.094382495 -0.0072188736 0.010456869
0.064396128 0.065827787 0.010378032
0.066033989 0.066313766 0.010380392
-0.095141239 -0.010020895 0.010486241
-0.093789987 -0.0094006313 0.010485589
0.06534861 0.064465612 0.01039884
0.067009978 0.064410307 0.010407706
0.068671368 0.064354949 0.010416573
-0.094365962 -0.011709873 0.01051004
0.068123065 0.062876433 0.01043134
0.069136515 0.063341595 0.010430852
-0.094941944 -0.014019056 0.01053449
-0.093713909 -0.013353098 0.010532706
0.068989731 0.061433911 0.010452669
0.07024961 0.061807726 0.010454471
-0.095052779 -0.017341595 0.010573218
-0.094349451 -0.016200818 0.010563209
-0.09312778 -0.015476461 0.010560689
0.070011444 0.059653595 0.010478758
0.071179934 0.059781019 0.010483027
0.072193377 0.060246237 0.010482538
-0.094761148 -0.018570932 0.010589196
-0.093574181 -0.017889738 0.010587006
-0.092715785 -0.017086796 0.010581758
0.071955204 0.058092099 0.010506826
0.072968662 0.058557253 0.010506336
-0.094250634 -0.020361938 0.010612908
-0.092928499 -0.019474566 0.010608936
0.072736025 0.056569271 0.010528689
0.074076191 0.056857299 0.010531903
-0.093557656 -0.022380741 0.010640176
-0.09236145 -0.021422688 0.010634764
0.073998615 0.05453153 0.010559016
0.075304203 0.055028539 0.010559605
-0.093978599 -0.025027709 0.010669385
-0.092782386 -0.024069658 0.010663973
0.07612516 0.053462815 0.010582161
0.077753298 0.054073889 0.010582982
-0.093668491 -0.025703276 0.010678904
-0.092007093 -0.025758632 0.010687771
0.077238239 0.051928941 0.010605781
0.078881629 0.052581064 0.010606222
0.080588683 0.052648954 0.010613832
-0.092272982 -0.02874339 0.01072174
-0.091076784 -0.02778534 0.010716328
0.078259945 0.050148681 0.010631884
0.079857625 0.050677549 0.010633522
0.0812089 0.051297821 0.01063287
-0.093214512 -0.032038249 0.010756035
-0.092050128 -0.030788105 0.010747024
-0.09038379 -0.029804133 0.010743627
0.079436705 0.048030585 0.010662732
0.080787964 0.04865085 0.010662079
0.082477048 0.049426168 0.010661263
-0.093087137 -0.033206709 0.010770477
-0.09139806 -0.03243139 0.010769662
-0.089709006 -0.031656019 0.01076883
0.080038436 0.046125673 0.010688229
0.081563227 0.046961922 0.010685876
0.083088033 0.047798116 0.010683523
-0.092284165 -0.034065012 0.010784592
-0.09062279 -0.03412031 0.010793459
-0.088933714 -0.033344992 0.010792628
0.080649436 0.044497635 0.01071049
0.08233849 0.045273002 0.010709673
0.083379656 0.046568841 0.010699502
-0.089646772 -0.036023818 0.010820788
-0.088003397 -0.035371702 0.010821185
0.081585295 0.042637076 0.010737113
0.082931027 0.043091197 0.010738394
-0.088579386 -0.037680887 0.010845635
-0.087228119 -0.037060622 0.010844982
0.082692854 0.040937059 0.01076268
0.084044106 0.041557323 0.010762013
-0.091469131 -0.041542929 0.010877009
-0.089858703 -0.041130852 0.010880093
-0.088141918 -0.039524913 0.010869596
-0.086452864 -0.038749542 0.010868779
0.083468124 0.039248139 0.010786478
0.084819369 0.0398684 0.010785811
-0.090589754 -0.04310225 0.010899784
-0.088900678 -0.042326938 0.010898968
-0.087211601 -0.04155162 0.010898152
-0.085422039 -0.040613342 0.010895916
0.084398441 0.037221435 0.01081502
0.085749701 0.0378417 0.010814367
-0.089814492 -0.044791177 0.010923581
-0.088125408 -0.044015858 0.010922765
-0.086436331 -0.04324054 0.01092195
-0.084747247 -0.042465221 0.010921135
0.085173726 0.035532456 0.010838818
0.086524993 0.03615272 0.010838165
0.087876245 0.036772989 0.010837513
-0.087350145 -0.045704782 0.010946563
-0.085661069 -0.044929463 0.010945747
-0.08382719 -0.044087712 0.010944864
0.085638888 0.034519106 0.010853096
0.087300248 0.0344638 0.010861963
0.088651516 0.035084069 0.01086131
-0.086729906 -0.047055971 0.010965601
-0.084963322 -0.046449486 0.010967157
-0.0836896 -0.045660339 0.010964132
0.087034367 0.031479046 0.010895931
0.088230573 0.032437094 0.010890519
0.089581825 0.033057354 0.010889866
0.087654583 0.030127911 0.010914969
0.089005843 0.030748172 0.010914316
0.090202041 0.031706218 0.010908904
0.088338464 0.028192537 0.01094122
0.089781135 0.029059196 0.010938114
0.089022361 0.026257172 0.010967487
0.090588227 0.027078191 0.010965526
0.089614868 0.024075415 0.010996207
0.091174372 0.024954828 0.010993508
0.089038908 0.021766173 0.011020657
0.090390153 0.022386439 0.01101999
0.091586374 0.023344489 0.011014578
0.089814179 0.020077256 0.011044439
0.091165423 0.020697515 0.011043787
0.090536252 0.017791402 0.011075042
0.091757923 0.018515758 0.011072506
0.09032356 0.015403579 0.011102205
0.091181934 0.016206574 0.011096956
0.092040353 0.017009521 0.011091708
-0.071883082 -0.060688924 0.01120012
-0.070362918 -0.059991103 0.011199386
0.091309302 0.015038114 0.011111398
-0.071190104 -0.062707722 0.011227419
-0.071008168 -0.064376928 0.011248041
-0.055513408 -0.078530386 0.011491916
-0.054710433 -0.079388693 0.011506031
-0.053597346 -0.080922566 0.011529665
-0.051506788 -0.080576368 0.0115359
-0.050640125 -0.082018904 0.011557229
-0.048951063 -0.08124353 0.011556413
-0.047505669 -0.081125349 0.011562156
0.090201028 -0.018187381 0.011498681
0.091223717 -0.017445311 0.011494955
0.092349783 -0.016928472 0.011494417
-0.049864843 -0.083707817 0.011581026
-0.048175782 -0.082932509 0.011580211
-0.046486728 -0.082157135 0.011579394
-0.044980377 -0.081874706 0.011583502
0.090328388 -0.019355841 0.011513123
0.091679648 -0.018735578 0.011512471
0.093030907 -0.018115312 0.011511804
-0.047400508 -0.084621429 0.011604008
-0.045711432 -0.083846115 0.011603192
-0.04402237 -0.08307074 0.011602362
0.089569636 -0.022157863 0.011542495
0.090765834 -0.021199821 0.011537083
0.092454918 -0.020424495 0.011536254
0.09380617 -0.019804239 0.011535601
-0.044781111 -0.085872814 0.011631735
-0.042754211 -0.084942445 0.011630756
-0.041092839 -0.084997743 0.011639622
0.089792512 -0.024202641 0.011567781
0.09169618 -0.023226576 0.011565627
0.093385234 -0.022451203 0.01156481
-0.04197894 -0.086631365 0.011654553
-0.04028986 -0.085856043 0.011653738
-0.039121374 -0.085728623 0.011658007
0.088919766 -0.026682111 0.011592755
0.090444565 -0.025845863 0.011590417
0.092471443 -0.0249155 0.011589424
-0.039514598 -0.08754497 0.011677535
-0.037871212 -0.086892851 0.011677961
-0.036164146 -0.086824961 0.011685571
0.08817026 -0.029207278 0.011618905
0.089530766 -0.028310155 0.01161503
0.091034703 -0.027386099 0.011611547
0.093195774 -0.026137033 0.011607453
-0.036895208 -0.088796362 0.011705277
-0.034913994 -0.087989189 0.011705539
-0.033206929 -0.087921299 0.011713149
0.087073684 -0.03216435 0.011648441
0.088648781 -0.031066481 0.011643257
0.090150982 -0.029661292 0.011634054
-0.03409303 -0.089554913 0.01172808
-0.03240395 -0.088779598 0.011727265
0.085995585 -0.034567717 0.011671531
0.087520398 -0.033731524 0.011669179
0.089045182 -0.032895278 0.011666826
-0.033472806 -0.090906046 0.011747118
-0.031783737 -0.090130731 0.011746302
0.083876356 -0.038266912 0.011704778
0.085246079 -0.037092883 0.011697667
0.086606577 -0.036195762 0.011693791
0.088295653 -0.035420448 0.011692977
-0.028607801 -0.092149027 0.011785854
-0.026918722 -0.091373712 0.011785038
0.082441978 -0.041379094 0.011734477
0.083944149 -0.039973848 0.011725303
0.085847832 -0.038997781 0.011723164
-0.024700807 -0.09219598 0.011805714
0.080331959 -0.04480138 0.011764502
0.081701718 -0.0436274 0.011757391
0.083062194 -0.042730227 0.011753515
0.084751278 -0.041954909 0.0117527
-0.01802763 -0.091586575 0.011831483
0.080287628 -0.046130382 0.011779999
0.082148381 -0.045194466 0.011778128
0.083673179 -0.044358276 0.011775776
0.085371487 -0.043306049 0.011771738
-0.015380516 -0.092007346 0.011849542
-0.013691437 -0.091232032 0.011848727
-0.011786395 -0.090630203 0.01185102
-0.0096653802 -0.090201855 0.011856436
-0.0083141178 -0.089581594 0.011855784
0.077828713 -0.050040018 0.011814054
0.079055004 -0.048892923 0.01180658
0.080896765 -0.047813814 0.011802904
0.082839206 -0.046922192 0.011801981
-0.012761118 -0.093258739 0.011877283
-0.010734216 -0.092328362 0.011876306
-0.0090451678 -0.091552995 0.011875474
-0.0077503845 -0.090631492 0.011870988
0.077079214 -0.05256518 0.011840205
0.078111142 -0.051546257 0.011833256
0.079800211 -0.050770946 0.01183244
-0.0099589564 -0.09401729 0.011900088
-0.0082698707 -0.093241967 0.011899272
-0.0072564366 -0.09277676 0.011898782
-0.0074946065 -0.094930895 0.011923069
-0.0058512255 -0.094278768 0.011923496
-0.0037277038 -0.093692534 0.011927042
-0.0017794711 -0.093125403 0.011929978
-0.00042820946 -0.092505142 0.011929311
0.07085079 -0.059786465 0.011894789
0.072722614 -0.058518257 0.011889051
0.074256636 -0.057405155 0.011883475
-0.001159259 -0.094476543 0.011949001
0.00052982621 -0.093701228 0.011948186
0.0025110235 -0.092894055 0.011948449
0.0044008535 -0.092333324 0.011951151
0.0059071672 -0.092050843 0.011955258
0.068494342 -0.063117415 0.011922523
0.069781929 -0.061912917 0.011914643
0.071471006 -0.061137602 0.011913827
0.0050210692 -0.093684465 0.011970188
0.0067101526 -0.092909142 0.011969374
0.0086456481 -0.092225172 0.011970849
0.010243337 -0.09169624 0.011972486
0.064293765 -0.066885896 0.011946313
0.065307207 -0.066420682 0.011945824
0.06684123 -0.065307587 0.011940234
0.068868101 -0.064377159 0.011939256
0.0095123183 -0.093667693 0.011992177
0.011539188 -0.092737272 0.011991198
0.013222737 -0.092128105 0.011992317
0.01498103 -0.091770872 0.011996781
0.016578715 -0.091241948 0.011998434
0.057792153 -0.07232403 0.011978459
0.058805592 -0.071858816 0.01197797
0.060339615 -0.070745714 0.011972394
0.062334664 -0.0695232 0.011967816
0.06423834 -0.068547137 0.011965677
0.065927424 -0.067771822 0.011964847
0.017874569 -0.092282981 0.012017131
0.019563649 -0.091507658 0.012016315
0.021244803 -0.090969652 0.012018276
0.023330547 -0.090269305 0.012020288
0.025278788 -0.089702174 0.012023224
0.026292223 -0.08923696 0.01202272
0.040142655 -0.08287932 0.012016017
0.041831709 -0.082103953 0.012015201
0.04352079 -0.081328638 0.012014385
0.045209866 -0.080553316 0.012013569
0.047236767 -0.079622947 0.012012577
0.048925847 -0.078847632 0.012011761
0.050614901 -0.078072265 0.012010945
0.052652892 -0.07680966 0.012006085
0.054175828 -0.076028794 0.012004391
0.055833079 -0.074961387 0.011999978
0.057736751 -0.073985323 0.011997824
0.022027992 -0.092421263 0.012039297
0.024054868 -0.091490842 0.012038318
0.025743946 -0.090715528 0.012037503
0.027433028 -0.089940213 0.012036672
0.029459927 -0.089009844 0.012035694
0.031148981 -0.088234469 0.012034877
0.032439325 -0.087778501 0.012035861
0.038745213 -0.084883973 0.012032812
0.040269993 -0.084047727 0.012030458
0.042296894 -0.083117358 0.01202948
0.043985974 -0.082342044 0.012028664
0.04567505 -0.081566729 0.012027834
0.047701925 -0.0806363 0.012026855
0.049391005 -0.079860985 0.01202604
0.051080085 -0.07908567 0.012025224
0.052860536 -0.078063905 0.01202194
0.026209109 -0.091728881 0.012051766
0.027898185 -0.090953566 0.012050951
0.029925087 -0.090023197 0.012049972
0.031830132 -0.089421362 0.01205228
0.032965422 -0.088627614 0.012048503
0.042917106 -0.084468499 0.012048518
0.044606186 -0.083693177 0.012047702
0.046295263 -0.082917862 0.012046872
0.048167087 -0.081649654 0.012041133
-0.048472859 0.077217937 0.0086855441
-0.047115963 0.077840827 0.0086848838
-0.045419812 0.078619383 0.0086840624
-0.043723661 0.079397932 0.0086832419
-0.041844007 0.080671437 0.0086774807
-0.04020904 0.081285037 0.0086783161
-0.038635232 0.081733637 0.0086807776
-0.058733184 0.07004419 0.008719651
-0.057037059 0.07082279 0.0087188287
-0.055340905 0.071601339 0.0087180082
-0.053553 0.072627373 0.0087147094
-0.051765099 0.0736534 0.0087114116
-0.050224647 0.074771143 0.0087058125
-0.048411839 0.075475983 0.0086064432
-0.046369657 0.076222435 0.0084576923
-0.04467174 0.07700181 0.0084568579
-0.042992938 0.077834606 0.0082886554
-0.040963236 0.078797385 0.0082039637
-0.039263561 0.07957758 0.0082031321
-0.037548535 0.080302596 0.0083697243
-0.035662562 0.081091069 0.0085780527
-0.033785973 0.081906192 0.0087027131
-0.032089848 0.0826848 0.0087018916
-0.03015901 0.083488926 0.0087019205
-0.028202612 0.084058419 0.0087048505
-0.063226618 0.06551756 0.0087509556
-0.061686192 0.066635355 0.0087453416
-0.060145743 0.067753099 0.0087397434
-0.058449589 0.068531647 0.008738922
-0.056414232 0.069465965 0.0087379385
-0.054718085 0.070244513 0.0087371171
-0.053021956 0.071023121 0.0087362956
-0.051019359 0.072022989 0.0085121132
-0.04936133 0.072885394 0.0082323244
-0.047741719 0.073617563 0.0079816384
-0.045530137 0.07441587 0.0077331299
-0.043826941 0.075197712 0.007732302
-0.042123716 0.075979494 0.0077314749
-0.040079881 0.0769177 0.0077304882
-0.038376655 0.077699482 0.0077296612
-0.03667346 0.078481324 0.0077288337
-0.03464115 0.079631068 0.0079753157
-0.033057213 0.080430396 0.0080570234
-0.031356364 0.081211142 0.0080561927
-0.029315343 0.08214803 0.0080552027
-0.027508631 0.083059937 0.0081485976
-0.02586505 0.083236419 0.007726036
-0.068370707 0.061513666 0.008772851
-0.06649103 0.062787116 0.0087670917
-0.064794898 0.063565724 0.0087662693
-0.063098751 0.064344272 0.0087654488
-0.060908999 0.065129563 0.0085169571
-0.059303083 0.065852717 0.0082663242
-0.05767262 0.066740379 0.0078749675
-0.055648927 0.067709208 0.0077624032
-0.053945728 0.068491049 0.0077615757
-0.052242503 0.069272831 0.0077607487
-0.050198667 0.070211038 0.0077597615
-0.048495442 0.07099282 0.0077589345
-0.046792243 0.071774662 0.007758107
-0.044935066 0.072862804 0.0077544171
-0.043367192 0.073896661 0.0077499626
-0.04165468 0.074957691 0.007745875
-0.039951455 0.075739473 0.0077450485
-0.035523113 0.0777722 0.0077429004
-0.034160554 0.078397669 0.0077422471
-0.032457333 0.079179458 0.0077414201
-0.030505629 0.079869151 0.0077429181
-0.028553925 0.080558844 0.0077444012
-0.026850706 0.081340626 0.0077435742
-0.025147507 0.082122467 0.0077427616
-0.023103639 0.083060622 0.00774176
-0.021244098 0.08350186 0.0077457428
-0.020222152 0.083970904 0.0077452497
-0.070817627 0.058254935 0.0087992931
-0.069444031 0.059378292 0.0087927971
-0.067612261 0.059982695 0.0086128591
-0.065661609 0.060875818 0.0082937637
-0.063961938 0.061656013 0.0082929172
-0.062311616 0.062500834 0.0080410652
-0.060272459 0.063242324 0.0078923758
-0.058457881 0.063945562 0.0077930181
-0.05675466 0.064727344 0.0077921911
-0.054710824 0.065665551 0.0077912039
-0.053007599 0.066447333 0.0077903769
-0.051491085 0.067379162 0.0077868309
-0.049416885 0.068507925 0.0077837529
-0.047870032 0.069630362 0.0077781305
-0.046848115 0.070099466 0.0077776369
-0.073626064 0.05417328 0.0088336561
-0.072117582 0.05558436 0.0088244304
-0.070231088 0.056590267 0.0087107243
-0.068620749 0.057460453 0.0083194841
-0.067006327 0.058087558 0.007962889
-0.06482961 0.058958888 0.0078204777
-0.063126385 0.059740674 0.0078196507
-0.06142319 0.060522512 0.0078188227
-0.059546847 0.061466224 0.007816935
-0.057832476 0.062583104 0.0078122141
-0.077780277 0.049802363 0.0088647995
-0.076412223 0.050758842 0.0088602444
-0.074575648 0.051991992 0.0088547524
-0.073003255 0.052816451 0.0088527808
-0.071384482 0.053668316 0.0085173417
-0.069472507 0.054728881 0.0079586497
-0.067794889 0.055535786 0.0078462828
-0.066278368 0.056467615 0.0078427522
-0.064360544 0.05793703 0.0078348629
-0.062657341 0.058718871 0.0078340508
-0.061294764 0.059344284 0.007833383
-0.079532057 0.04735557 0.0088850679
-0.077991605 0.048473313 0.0088794697
-0.075828247 0.049335387 0.0087371012
-0.073900595 0.050116222 0.0083246734
-0.072266929 0.050955091 0.0080450205
-0.070603848 0.051772133 0.0078768982
-0.068684235 0.052756358 0.0078747263
-0.06716951 0.05417338 0.0078654783
0.0062927608 0.086751141 0.0088434974
0.0076496801 0.087373979 0.008842838
0.0090065859 0.087996878 0.0088421768
-0.081650883 0.043918915 0.0089152139
-0.080419481 0.045070827 0.0089076916
-0.078909241 0.045998745 0.0089041777
-0.077270158 0.046819597 0.0086803213
-0.075411372 0.04773403 0.0081508923
-0.073228516 0.048505452 0.0079025431
-0.07152532 0.049287289 0.0079017151
-0.070070595 0.05016122 0.0078985635
-0.068615884 0.051035147 0.0078954259
0.0066453987 0.085751742 0.008190331
0.008379505 0.086362801 0.008233333
0.010274924 0.086872235 0.008736725
0.012098529 0.087225877 0.0088665616
-0.082752034 0.040949445 0.0089448756
-0.081582792 0.042204812 0.008935811
-0.079730503 0.043223929 0.0087106628
-0.077867545 0.044280276 0.008040675
-0.076193817 0.045082401 0.0079283481
-0.074614845 0.045910262 0.0079263505
-0.072851606 0.047235139 0.007919413
-0.071396887 0.048109066 0.0079162754
0.0097401086 0.084734268 0.0078842845
0.011096029 0.085224815 0.0080280555
0.012765365 0.085624985 0.0085137617
0.014634361 0.086473413 0.0088880006
0.016825443 0.087068483 0.0088917948
0.01852157 0.087847084 0.0088909734
0.020113178 0.0884955 0.0088911634
-0.08348614 0.038969778 0.0089646447
-0.082624175 0.039776158 0.0089593837
-0.080828272 0.040400766 0.0085858284
-0.079002775 0.041318756 0.0079589477
-0.07708317 0.042302977 0.0079567917
-0.075577721 0.043440755 0.0079508033
0.011635941 0.083748765 0.007905297
0.013697905 0.083973631 0.00791281
0.015667433 0.084709123 0.0081361029
0.017514097 0.085505791 0.0086636376
0.019144394 0.086490259 0.0089100832
0.020840524 0.087268867 0.0089092609
0.022475511 0.087882414 0.0089100813
-0.084917262 0.036122646 0.008991234
-0.083418049 0.037255678 0.0089852419
-0.081655271 0.038170524 0.008608114
-0.080167249 0.038912218 0.0081816865
-0.078388542 0.039621256 0.0079820529
0.014958548 0.082799628 0.0079329377
0.016582439 0.08321517 0.0079360502
0.018263293 0.084094152 0.0081340084
0.019797448 0.084810317 0.0083081098
0.021635793 0.085611746 0.0088216737
0.023654427 0.086507112 0.0089321658
0.025344977 0.087118886 0.0089332983
0.026679644 0.087074459 0.0089404145
-0.086018421 0.033153176 0.0090208957
-0.084642932 0.034332067 0.0090137534
-0.082732134 0.035329759 0.0085669253
-0.080845661 0.036348958 0.0080085993
-0.079273127 0.037235767 0.0080058891
-0.078433238 0.038281102 0.007997673
0.017627792 0.082375377 0.007951146
0.018867511 0.082669482 0.0079538012
0.020665657 0.082945012 0.0079594161
0.022691961 0.083844349 0.0080699129
0.024643203 0.084587499 0.0086263837
0.026284765 0.085250497 0.0089600226
0.027935022 0.085905366 0.0089604314
0.029649239 0.085973501 0.0089680962
-0.087009236 0.030987175 0.009041599
-0.085321225 0.031773008 0.0088406559
-0.083840713 0.032503299 0.0084142676
-0.081951395 0.033367094 0.0080383727
-0.080312409 0.034738045 0.0080302646
0.021972341 0.081895284 0.0079782931
0.023655571 0.082078859 0.0079844184
0.025350809 0.082621336 0.0079864031
0.027034501 0.083364502 0.0080970461
0.028755121 0.084192276 0.0088418648
0.030690253 0.085137211 0.0089831315
-0.088183604 0.028326327 0.0090672551
-0.086478196 0.029382925 0.0090631852
-0.084668852 0.030269958 0.0084365774
-0.08287286 0.030882251 0.0080632055
-0.081675932 0.031569079 0.008060988
0.026316864 0.081415251 0.0080054393
0.027835798 0.081700064 0.0080095669
0.029801184 0.08284647 0.0082557499
0.03159469 0.08360929 0.0088945543
0.033486333 0.084175691 0.009008321
-0.089981765 0.024489338 0.009103721
-0.089145362 0.025530349 0.009095544
-0.087579347 0.026413454 0.009092846
-0.085641108 0.027384521 0.0087575838
-0.083794303 0.028397353 0.0080880234
-0.082413107 0.029581202 0.0080808513
0.028645469 0.080834627 0.0080238068
0.030707462 0.081059441 0.0080313208
0.032437462 0.081832573 0.0081736036
0.034379683 0.08238747 0.0087611023
0.036233496 0.083082169 0.0090348218
0.037568152 0.083037734 0.009041938
-0.090026289 0.023154784 0.0091192722
-0.088496968 0.023938891 0.0091175698
-0.086710259 0.024538761 0.0087442668
-0.084900029 0.025415489 0.0081177969
-0.083327509 0.026302293 0.0081150858
0.031968076 0.07988549 0.0080514466
0.033308309 0.079840824 0.0080585973
0.035089757 0.080552123 0.0081589976
0.036926057 0.081200592 0.0086318683
0.038609158 0.082201436 0.0090569733
-0.090980604 0.020581216 0.0091449898
-0.089414604 0.021464322 0.0091422778
-0.087575182 0.02231936 0.0086412085
-0.086059645 0.023022203 0.0083404016
-0.084285803 0.023717988 0.0081409011
0.035892673 0.078882724 0.0080826944
0.037830446 0.079833232 0.0082239062
0.039517272 0.080672137 0.0089684166
0.041182797 0.081247345 0.0090809669
-0.09171696 0.017532762 0.0091773765
-0.090515763 0.018494848 0.0091719395
-0.088683732 0.019481057 0.0085026026
-0.086742945 0.020445745 0.0081674475
-0.085361756 0.021629594 0.0081602745
-0.084330522 0.022377891 0.0081565212
0.03693803 0.078042939 0.0080977753
0.038659371 0.07811144 0.0081054624
0.040474679 0.078889497 0.0083552664
0.042380761 0.079436846 0.0090082884
0.044252485 0.07980907 0.0091131413
-0.092295349 0.015213908 0.0092019392
-0.091433391 0.016020279 0.0091966623
-0.089651242 0.016607763 0.008823486
-0.087848693 0.017463878 0.008197221
-0.086276151 0.018350683 0.0081945099
0.039797138 0.076606117 0.0081288973
0.04125461 0.076725326 0.0081346855
0.043110564 0.07759466 0.0084063374
0.044875801 0.078384042 0.0089330357
0.045954149 0.079084381 0.009130111
-0.09222728 0.013499797 0.0092225363
-0.090478271 0.014377572 0.0088457707
-0.089005813 0.015077145 0.0084197605
-0.087234452 0.015766384 0.0082203252
0.042220656 0.075519234 0.0081537217
0.043739595 0.075804055 0.0081578642
0.045624785 0.076877281 0.0086545283
0.047365267 0.077576041 0.0091549065
0.049079459 0.077644236 0.0091625853
-0.092982806 0.010627395 0.0092527466
-0.091451734 0.011515353 0.0091387164
-0.089691602 0.012494134 0.0082468716
-0.087988369 0.01327592 0.0082460446
-0.087279148 0.014426226 0.0082359463
0.044954147 0.074505821 0.0081792111
0.046565201 0.075039148 0.0081808688
0.048432916 0.075767949 0.008848194
0.050258365 0.076268926 0.0091846539
-0.093874849 0.0079181381 0.0092803715
-0.092673667 0.0088802213 0.0092749335
-0.090632208 0.0096222814 0.0086512007
-0.088753484 0.010450417 0.0082756579
-0.08754725 0.011416491 0.0082701948
0.047626175 0.073326796 0.0082063461
0.049269393 0.073897593 0.0083505819
0.05099415 0.074567422 0.0088750441
0.052671857 0.075186513 0.0092093758
-0.093461141 0.006301099 0.009301533
-0.091895126 0.007184214 0.009298821
-0.090134732 0.0079058381 0.0084417844
-0.088139266 0.0087529765 0.0082987621
0.049988274 0.072074264 0.0082328329
0.051934533 0.073127382 0.008730039
0.053633887 0.07398545 0.0092283385
0.054962985 0.073774196 0.0092373937
-0.093674749 0.0039033126 0.0093288198
-0.092657059 0.0043704482 0.0093283206
-0.0911358 0.0051596602 0.0087708933
-0.089233823 0.0061061499 0.0083246408
-0.087852634 0.0072900006 0.0083174687
0.050797969 0.071208775 0.0082470588
0.052549824 0.071253851 0.0083551956
0.054424122 0.071822152 0.0090077939
0.055919457 0.072406262 0.0092582973
-0.093235455 0.0020515865 0.0093528824
-0.091495745 0.0026187343 0.0088547207
-0.089998908 0.0032806536 0.008354255
-0.088767022 0.0040110899 0.0083517032
0.053757589 0.069433197 0.0082826763
0.055389814 0.069982827 0.0085064862
0.057042759 0.07103283 0.0092800828
-0.093841679 -0.0011013648 0.0093871458
-0.092796162 0.00019986044 0.009376931
-0.090948075 0.00089664495 0.0088063441
-0.089217156 0.0015775957 0.0083782459
0.054718066 0.068059556 0.00830366
0.056236967 0.068344422 0.0083078016
0.057854805 0.069368146 0.0091926539
0.059425659 0.069867939 0.0093056243
-0.093310624 -0.0027056118 0.009408731
-0.091897123 -0.0018365962 0.0092943357
-0.090138599 -0.0009073033 0.0084030787
-0.088776045 -0.00028182991 0.0084024109
0.057168722 0.06682802 0.008330306
0.058925297 0.067455262 0.0087760538
0.06074499 0.06811218 0.0093328962
-0.092951968 -0.0044711828 0.0094313761
-0.091078512 -0.0037583108 0.0088071451
-0.089324728 -0.0029049434 0.0084306952
0.058303069 0.064921573 0.008358472
0.059716716 0.065504745 0.0085014207
0.061386634 0.066281915 0.0091076922
0.06308201 0.06682355 0.0093596848
-0.093697198 -0.0067844857 0.009455041
-0.092375658 -0.0061649014 0.0093431408
-0.090581477 -0.0054876511 0.0085978992
-0.088759385 -0.0048103915 0.0084560299
0.059419882 0.063207328 0.008384251
0.060441799 0.063676432 0.0083837574
0.062216304 0.064740866 0.0091072684
0.063952282 0.065375008 0.0093811089
-0.093102224 -0.008975355 0.0094838804
-0.091581978 -0.0082170619 0.0089268144
-0.089680821 -0.0072952867 0.0084808487
-0.088630967 -0.0059886156 0.0084705902
0.059644599 0.061145458 0.0084097162
0.061223559 0.061973371 0.0084077474
0.063158177 0.062824592 0.008740617
0.064978264 0.063587278 0.0094073107
0.066151656 0.063715212 0.0094115902
-0.093341388 -0.011138497 0.0095082661
-0.091956899 -0.010636472 0.0090805627
-0.090445921 -0.010120783 0.008510462
-0.089405365 -0.0090933042 0.0085034631
0.06080471 0.059471738 0.0084352549
0.06216168 0.059929654 0.0084365495
0.063864887 0.060711496 0.0084357215
0.065616369 0.06156804 0.0089342808
0.067113712 0.062514096 0.0094305528
-0.092654616 -0.013081994 0.00953463
-0.091409691 -0.012362465 0.0090322373
-0.089664161 -0.011823841 0.0085344529
0.061921522 0.057757497 0.0084610339
0.062943436 0.058226597 0.0084605403
0.064646631 0.059008434 0.0084597124
0.066574737 0.060030531 0.008885785
0.06818556 0.06085011 0.0094555095
-0.092068784 -0.015189057 0.0095624337
-0.090480044 -0.014287688 0.0088929059
-0.089013062 -0.013421933 0.0085565606
0.063730784 0.056691024 0.0084825838
0.065428391 0.057305373 0.0084837032
0.067472249 0.058243524 0.008482717
0.069165662 0.058938637 0.0094829574
0.070833988 0.058883093 0.0094918516
-0.092574097 -0.018178388 0.0095952861
-0.091407806 -0.017224785 0.0094786333
-0.089647509 -0.016352402 0.0085880719
-0.08844129 -0.015386332 0.0085826088
0.065003954 0.054636251 0.0085131573
0.066366531 0.05526166 0.0085125044
0.068410359 0.056199871 0.0085115023
0.070217058 0.056981161 0.0091779185
0.071456812 0.057526272 0.0095109763
-0.092125535 -0.019752068 0.0096161002
-0.09069851 -0.018939016 0.0092801796
-0.088865742 -0.018055458 0.0086120628
0.069532774 0.054653123 0.0085353348
0.071056344 0.055320527 0.009035009
0.072513387 0.055821013 0.0095363427
-0.091612898 -0.021550564 0.0096398843
-0.090022899 -0.020666827 0.008970554
-0.088424623 -0.019914886 0.0086362278
0.065729819 0.05125799 0.008556678
0.070320107 0.053117611 0.0085573783
0.071896508 0.053657997 0.0088921385
0.073353067 0.05429 0.0095585883
-0.090917021 -0.023577809 0.0096672988
-0.089155033 -0.022729823 0.0087770047
-0.087486506 -0.021958599 0.0086650141
0.071593277 0.05106277 0.0085879667
0.072664201 0.051665328 0.0087289857
0.074475057 0.052274127 0.0094061289
0.076294832 0.052354954 0.0095960004
-0.090138488 -0.025273824 0.0096911853
-0.088407964 -0.024443444 0.0086898468
-0.086870402 -0.023600245 0.0086874701
0.072218694 0.049700316 0.0086071622
0.073396973 0.04982876 0.0086114649
0.075158499 0.050610356 0.0093609905
0.076761939 0.051337376 0.0096103474
-0.089359969 -0.026969841 0.0097150877
-0.087626219 -0.026146503 0.0087138377
-0.086263627 -0.025521087 0.00871317
0.074178733 0.048125699 0.0086354557
0.07603205 0.048962675 0.0091347452
0.077874124 0.049630251 0.0096360128
-0.089626968 -0.029967085 0.009749189
-0.08842577 -0.029004999 0.009743751
-0.086688086 -0.02819022 0.008742624
-0.085325524 -0.027564745 0.0087419711
0.075208999 0.0463305 0.0086617712
0.076968201 0.046923235 0.0091634933
0.078813873 0.047761906 0.0096627511
-0.089004159 -0.031323854 0.0097683128
-0.087647252 -0.030701017 0.0097676525
-0.085906327 -0.029893277 0.0087666297
-0.084543765 -0.029267808 0.008765962
0.076239228 0.04453535 0.0086880876
0.077748343 0.045223698 0.0091874395
0.079427443 0.046127036 0.0096851094
-0.08822564 -0.033019871 0.0097921994
-0.086868718 -0.032397036 0.0097915549
-0.085124575 -0.031596337 0.0087906206
-0.083762012 -0.030970866 0.0087899528
0.077021018 0.042832237 0.0087120784
0.078528471 0.043524221 0.0092113847
0.080031708 0.044214167 0.0097107012
-0.087291427 -0.035055082 0.0098208785
-0.08596693 -0.034448586 0.0097091403
-0.084186472 -0.033639997 0.0088194069
0.07780277 0.041129176 0.0087360693
0.079497591 0.041498709 0.0091567794
0.081213385 0.042087246 0.0097416807
-0.086512893 -0.036751103 0.00984478
-0.085252568 -0.036178805 0.0095108915
-0.08340469 -0.035343111 0.0088434126
0.080344088 0.03982611 0.0090140458
0.08208365 0.040638704 0.0097631058
-0.08573439 -0.03844706 0.0098686665
-0.084472977 -0.037877146 0.0095348079
-0.082963571 -0.037202537 0.0088675637
0.081125021 0.038124841 0.0090380292
0.082862161 0.038942683 0.0097870072
-0.084644467 -0.040821463 0.0099021234
-0.083537452 -0.039915174 0.0095635224
-0.082025468 -0.039246198 0.0088963639
0.082020119 0.036226675 0.0090148952
0.083753839 0.036764797 0.0096743032
-0.08402165 -0.042178292 0.0099212322
-0.082757868 -0.041613527 0.0095874537
-0.081243716 -0.040949255 0.0089203548
0.082843103 0.03438196 0.0090907421
0.084574901 0.035211511 0.0098395729
-0.083101101 -0.044121593 0.009282046
-0.082013458 -0.04324175 0.0093186675
-0.08095894 -0.042468078 0.0089397104
0.083624065 0.032680634 0.0091147255
0.085353419 0.033515491 0.0098634744
0.086526819 0.033643432 0.0098677529
-0.086237371 -0.048068639 0.0095799007
-0.084711343 -0.047833588 0.0099846879
0.082962364 0.029888967 0.0088944305
0.084561214 0.030639093 0.0091434997
0.086287647 0.031480283 0.0098921387
0.086993925 0.032625858 0.009882085
-0.084532999 -0.04905723 0.0089999381
0.083744124 0.028185908 0.0089184362
0.085289836 0.028923158 0.0092923669
0.087066181 0.02978427 0.0099160401
0.084433749 0.026234338 0.0089449119
0.086017787 0.02720868 0.0094412602
0.08771456 0.028192807 0.0099380519
0.085123368 0.024282767 0.0089713875
0.086848386 0.025143877 0.00971979
0.088439666 0.025897382 0.0099687669
0.084883206 0.022110602 0.008995872
0.08590512 0.022579703 0.0089953784
0.087627724 0.023446072 0.0097437147
0.085664965 0.020407544 0.0090198629
0.086885527 0.021004336 0.0093522044
0.088401444 0.021890476 0.010015951
0.08626242 0.018207515 0.0090488233
0.087822348 0.018963495 0.0093809543
0.089234799 0.019691592 0.010046056
0.086871058 0.016342528 0.009073874
0.088531233 0.017251439 0.0095713791
0.089848332 0.018056773 0.010068414
0.087635294 0.014831686 0.0090955077
0.089335695 0.015554848 0.0095398379
0.090296887 0.016483095 0.010089228
-0.06954816 -0.060660817 0.0097112106
0.088662729 0.012593403 0.0091270357
0.090165228 0.013539251 0.0092661651
0.091228411 0.013936761 0.0094572231
-0.07003931 -0.062617935 0.01023195
-0.068754166 -0.061696038 0.0097987875
0.087998964 0.0099321883 0.0091552343
0.089205176 0.010898255 0.0091497712
0.090908378 0.011680096 0.0091489442
0.092315249 0.011953684 0.0094026905
-0.070931353 -0.065327197 0.01025956
-0.069730155 -0.064365104 0.010254122
-0.067918785 -0.063369744 0.0093762269
-0.066708371 -0.062731601 0.009249663
0.088414386 0.0083084516 0.0091764722
0.089986943 0.0091952011 0.0091737621
0.091690138 0.0099770343 0.009172935
0.092555717 0.010786741 0.0091676461
-0.06910073 -0.066246673 0.0096127382
-0.067132823 -0.065400727 0.009279117
-0.065521754 -0.0648674 0.0092807747
0.087831341 0.0049066623 0.009213808
0.088881202 0.0062133297 0.0092035504
0.090800785 0.0071976073 0.0092013925
-0.066351064 -0.067103788 0.0093031228
-0.064647838 -0.066322006 0.0093022957
-0.063346714 -0.065862186 0.0093032895
0.088125393 0.0036670798 0.009229918
0.089662969 0.0045102756 0.0092275413
-0.065545797 -0.06877441 0.0094379643
-0.063866079 -0.068025067 0.0093262866
-0.062162887 -0.067243226 0.0093254587
-0.06064396 -0.066958413 0.0093296021
0.088032298 0.00087507616 0.0092624575
0.088741496 0.0020254303 0.0092523582
-0.062927976 -0.070068717 0.0093550878
-0.061224777 -0.069286883 0.0093542598
-0.059303783 -0.068680048 0.0093565816
0.088501334 -0.00014673006 0.0092768576
-0.062146224 -0.071771778 0.0093790786
-0.060443006 -0.070989996 0.0093782516
-0.058399159 -0.070051797 0.0093772644
-0.056880239 -0.069766976 0.0093814069
-0.059661247 -0.072693057 0.0094022425
-0.057617407 -0.071754858 0.0094012553
-0.056254823 -0.071129434 0.0094006024
-0.058723137 -0.074736722 0.0094310427
-0.056679279 -0.073798567 0.0094300564
-0.05497608 -0.073016733 0.0094292285
-0.053221505 -0.072706215 0.009434226
-0.057627477 -0.076494806 0.010346182
-0.0557804 -0.075636499 0.00995625
-0.054271881 -0.074954219 0.0096556367
-0.052491102 -0.073938005 0.0094523923
-0.050849348 -0.073321819 0.0094532268
-0.056736991 -0.077907845 0.010478422
-0.055132613 -0.077376716 0.010480077
-0.053508658 -0.076384045 0.010226347
-0.051709361 -0.075641066 0.0094763832
-0.049665522 -0.074702859 0.009475396
-0.047867365 -0.074427329 0.0094810259
-0.054262336 -0.078825258 0.010501502
-0.052657928 -0.07829418 0.010503143
-0.050671779 -0.077467285 0.010169818
-0.048727393 -0.076746576 0.0095041981
-0.047154851 -0.075859763 0.009501487
-0.051774867 -0.079860069 0.010526019
-0.049688362 -0.079395078 0.010530839
-0.047862038 -0.078619622 0.0099056344
-0.046393663 -0.07808204 0.0097815506
0.087104931 -0.016870638 0.0094676483
0.088467516 -0.016245224 0.0094669806
0.090107627 -0.015769547 0.0099695129
