# .PCD v0.7 - Point Cloud Data file format
VERSION 0.7
FIELDS x y z
SIZE 4 4 4
TYPE F F F
COUNT 1 1 1
WIDTH 1274
HEIGHT 1
VIEWPOINT 0 0 0 1 0 0 0
POINTS 1274
DATA ascii
-0.011701879 -0.08859466 0.0097393235
-0.010089366 -0.087240867 0.0089878337
-0.0088265873 -0.086029194 0.0087378025
-0.0073353276 -0.084594287 0.0087378128
0.086878389 0.014203331 0.0087991199
0.087906733 0.015499861 0.0088014081
0.089238711 0.017124439 0.0093039926
0.090567172 0.018744508 0.0098065613
0.091169775 0.020026356 0.0098117692
-0.015795028 -0.089644186 0.0097607393
-0.014543846 -0.08898028 0.0097567374
-0.013114838 -0.087268651 0.0091342125
-0.011693724 -0.085780747 0.0087601347
-0.010123087 -0.085000895 0.0087546967
-0.0088726515 -0.084122881 0.0087522985
0.086816974 0.016745061 0.0088184383
0.087683842 0.018401178 0.0089673931
0.088821292 0.019970829 0.0093995333
0.090294875 0.021272365 0.0098272525
-0.017076813 -0.089041628 0.0097743515
-0.015826022 -0.087263472 0.0093500689
-0.014566681 -0.085841917 0.0089801447
-0.013305362 -0.084866054 0.0087784017
0.086104751 0.019906875 0.0088469926
0.087427728 0.021209016 0.0090471935
0.088826992 0.022402061 0.0095127961
0.090135753 0.023486175 0.0098448368
-0.019941688 -0.088477403 0.0097989887
-0.018698135 -0.087496899 0.0097974045
-0.017389195 -0.085992463 0.0092277834
-0.015857365 -0.084503986 0.0087993313
0.085831523 0.022443481 0.0088677816
0.087541476 0.023909329 0.0092414944
0.088823378 0.025355201 0.009868091
0.089426026 0.026637018 0.009873298
-0.022806568 -0.087913178 0.0098236259
-0.021555383 -0.087249264 0.009819624
-0.02030577 -0.08604008 0.0095696971
-0.018714322 -0.084679112 0.0088184187
-0.017148744 -0.083687484 0.0088145882
0.085165367 0.023698993 0.0088818697
0.086080156 0.025310649 0.008887304
0.087308571 0.026909374 0.0096404487
0.088437892 0.028197121 0.0098919477
-0.024338588 -0.087443396 0.0098380446
-0.022852466 -0.086013466 0.0098380726
-0.021566121 -0.08506608 0.0088358987
-0.020074815 -0.08363121 0.008835909
0.085300401 0.026881333 0.0089045092
0.086328782 0.028177822 0.0089067975
0.087520763 0.029764958 0.0097434791
0.088361405 0.031363301 0.0099160066
-0.027254559 -0.087387301 0.0098592872
-0.025740096 -0.086224049 0.0097142579
-0.024440238 -0.084758915 0.0090253558
-0.023193102 -0.083515964 0.0088590179
-0.021945246 -0.082532041 0.0088574095
0.084422454 0.028131656 0.0089200679
0.084893927 0.029669039 0.0089281285
0.086095884 0.031176239 0.0093057696
0.087402292 0.032616749 0.00973217
-0.030436097 -0.086830691 0.0098861409
-0.02886063 -0.086475767 0.0098775048
-0.027462583 -0.084988415 0.009503562
-0.026060242 -0.08326751 0.0088813202
-0.02482008 -0.081965849 0.008882137
0.083710223 0.031293474 0.0089486223
0.084314942 0.032579746 0.0089538833
0.085921034 0.034016427 0.0095781032
0.087120563 0.035515092 0.009955693
-0.031408887 -0.085903868 0.0098999543
-0.030481998 -0.084930994 0.0099005578
-0.028919701 -0.083538763 0.009233037
-0.027361849 -0.082027398 0.0088998219
-0.0261063 -0.081361197 0.0088958163
0.083225191 0.03382495 0.0089708827
0.084420435 0.03524106 0.009172882
0.085524201 0.03688246 0.0097772563
0.086617611 0.037974004 0.0099775363
-0.033014957 -0.084992334 0.0099181728
-0.031463936 -0.083485216 0.0095849885
-0.02990362 -0.082088947 0.0089175068
-0.028658303 -0.080999129 0.0089167152
0.082347214 0.035075326 0.0089864423
0.082951933 0.036361605 0.0089916727
0.084292486 0.037950087 0.0094939228
0.085418418 0.039528981 0.0099976538
-0.035238974 -0.084729373 0.0099360179
-0.034312032 -0.083756529 0.0099366214
-0.032925978 -0.082033537 0.0093145017
-0.031530604 -0.080538832 0.0089406259
-0.029949682 -0.080182627 0.008931973
0.081642672 0.037919417 0.0090126004
0.082782932 0.039520424 0.0092385681
0.084332399 0.040769909 0.010014605
0.084935054 0.042051714 0.010019813
-0.036845002 -0.083817884 0.0099542355
-0.035609115 -0.082520731 0.0099550402
-0.03465781 -0.080793083 0.0091039157
-0.033467647 -0.07931409 0.0089635411
0.080333412 0.039477222 0.0090334974
0.081248164 0.04108892 0.0090389624
0.082860857 0.042144671 0.0098353336
0.08406011 0.043297764 0.010035326
-0.039717555 -0.082937017 0.0099812904
-0.038466368 -0.082273111 0.0099772895
-0.037231766 -0.081087478 0.00964393
-0.036009423 -0.079375647 0.0089812251
0.080135673 0.042397182 0.0090565924
0.081589855 0.043796912 0.0094566308
0.082649842 0.044847623 0.010056911
0.083252482 0.046129424 0.010062119
-0.04132871 -0.081814416 0.01000111
-0.040087741 -0.080728345 0.010000313
-0.038858891 -0.079679213 0.0092492979
-0.037621014 -0.078460991 0.0089995218
0.079166837 0.043899678 0.0090746684
0.080195218 0.045196153 0.0090769567
0.081028469 0.046392392 0.010079934
0.082264364 0.047689538 0.010080769
-0.0426207 -0.080789678 0.010017957
-0.041389365 -0.07957489 0.0097681871
-0.040162787 -0.078522541 0.0090172067
-0.039232649 -0.077546299 0.0090178195
0.077963479 0.045460049 0.0090948455
0.078893609 0.046436273 0.0090954583
0.079932064 0.047682483 0.0095973127
0.080967285 0.048925333 0.010099187
-0.044844717 -0.080526732 0.010035773
-0.043917775 -0.079553887 0.010036375
-0.04302204 -0.07816457 0.0093735959
-0.041789763 -0.076972425 0.0090403259
-0.040208846 -0.076616228 0.009031673
0.077266634 0.047986399 0.0091185775
0.07837382 0.049249656 0.0094533917
0.079790734 0.050417509 0.010118677
-0.046775036 -0.07930626 0.010058625
-0.045539148 -0.078009121 0.010059429
-0.04465694 -0.076723926 0.0090626283
-0.043726809 -0.075747691 0.0090632411
0.075949684 0.04986193 0.0091419006
0.076879822 0.050838176 0.0091425134
0.078357786 0.052030213 0.01014086
0.079269387 0.053636335 0.010146299
-0.048396356 -0.077761523 0.010081648
-0.047179081 -0.076624349 0.0095813842
-0.045958508 -0.075483851 0.009081129
-0.045028381 -0.074507616 0.0090817418
0.074648075 0.051102057 0.0091604022
0.075578205 0.052078288 0.009161015
0.07680124 0.053596478 0.0099969553
0.078281291 0.05519639 0.010164918
-0.050002433 -0.076849997 0.010099896
-0.048478402 -0.07538642 0.0095998589
-0.047260121 -0.074243732 0.0090996306
0.073346511 0.052342124 0.0091789039
0.074276596 0.053318396 0.0091795167
0.075567767 0.054854933 0.0098484289
0.076984175 0.056432236 0.010183368
0.07758683 0.057714045 0.010188576
-0.052859683 -0.076602377 0.010122115
-0.051299512 -0.075614199 0.010118315
-0.050119411 -0.073942833 0.0092889415
-0.048818972 -0.07288269 0.0091208629
0.07264962 0.054868516 0.0092026358
0.074011631 0.056266692 0.0097033288
0.075687088 0.05766803 0.010201787
0.07661403 0.058640867 0.010202419
-0.054156765 -0.075366572 0.010140563
-0.052927338 -0.074103706 0.01003001
-0.051754281 -0.072445132 0.0091450531
-0.050824147 -0.07146889 0.0091456659
0.071022645 0.056418635 0.009225755
0.072638229 0.057943013 0.009654168
0.07406573 0.0592128 0.01022484
0.074992664 0.060185637 0.010225443
-0.055778135 -0.073821805 0.010163588
-0.054562822 -0.072626382 0.0098304804
-0.053055853 -0.071205057 0.0091635538
-0.051800344 -0.070538811 0.0091595491
0.069721036 0.057658754 0.0092442567
0.071022727 0.059185255 0.0099130161
0.072444402 0.060757529 0.010247893
0.073695585 0.061421432 0.010243892
-0.0573842 -0.072910264 0.010181835
-0.055861413 -0.071389154 0.0098489169
-0.054357462 -0.069964938 0.0091820555
0.068419464 0.058898821 0.0092627574
0.069724143 0.060422491 0.0099314814
0.071147285 0.061993372 0.010266312
-0.058681287 -0.071674466 0.010200254
-0.057159998 -0.070151903 0.0098673832
-0.055659067 -0.068724826 0.0092005571
0.067427933 0.060464334 0.009281463
0.068546459 0.061712485 0.0096160835
0.069850199 0.063229166 0.010284761
-0.060302652 -0.0701297 0.010223308
-0.058783226 -0.068605371 0.0098904287
-0.05728605 -0.06717471 0.0092236763
0.065800913 0.062014487 0.0093045831
0.066954851 0.063116051 0.0095545407
0.068054788 0.064747214 0.010165951
-0.061923977 -0.068584964 0.010246331
-0.060406454 -0.067058831 0.0099135339
-0.058913022 -0.065624595 0.0092467954
0.065104067 0.064540841 0.009328315
-0.064147986 -0.068322003 0.010264176
-0.063221104 -0.067349128 0.010264779
-0.061705038 -0.065821588 0.0099319704
-0.060214639 -0.064384483 0.0092652971
-0.064518176 -0.066113338 0.010283228
-0.063003629 -0.064584352 0.0099504367
-0.061516199 -0.063144401 0.0092837978
-0.065604188 -0.064872406 0.010300179
-0.064362511 -0.063147567 0.0098755481
-0.063143179 -0.061594285 0.009306917
-0.066479094 -0.063626386 0.010315661
-0.06607563 -0.06178182 0.010076514
-0.064765088 -0.060255937 0.0093284296
-0.067548707 -0.060253996 0.010015024
-0.066381834 -0.059129436 0.0093483338
-0.068866357 -0.059059974 0.0098666316
-0.067683406 -0.057889365 0.0093668355
-0.071382225 -0.059008069 0.0095849345
-0.069915146 -0.057625487 0.0093847243
-0.073092312 -0.057702452 0.0094068218
-0.074099235 -0.055501495 0.0094303498
-0.073169112 -0.054525264 0.0094309626
-0.072140761 -0.053228732 0.0094332509
-0.075676136 -0.054525696 0.0096988622
-0.074470714 -0.053285137 0.0094494643
-0.07323055 -0.051983472 0.009450281
-0.072300419 -0.051007234 0.0094508938
-0.0759442 -0.052133802 0.010468571
-0.074532114 -0.050743405 0.0094687827
-0.073601983 -0.049767163 0.0094693946
-0.077565566 -0.050589025 0.010491624
-0.076135494 -0.049155831 0.0096586654
-0.075228959 -0.048217043 0.0094925137
-0.078998476 -0.048976362 0.010513807
-0.077713534 -0.04753245 0.010015353
-0.076545909 -0.046341501 0.0095158378
-0.079963952 -0.047479063 0.010531829
-0.07893914 -0.046187054 0.010534101
-0.077847511 -0.045101386 0.0095343394
-0.081163153 -0.045924086 0.010551946
-0.080236264 -0.044951208 0.01055255
-0.079111367 -0.043809477 0.009802944
-0.078218997 -0.042885039 0.0095534539
-0.081533343 -0.043715406 0.010570969
-0.080373533 -0.042519163 0.010071559
-0.079535946 -0.041009497 0.009576777
0.039189968 0.084471136 0.0096612833
-0.083154708 -0.042170636 0.010594022
-0.081918821 -0.04087349 0.010594826
-0.081162922 -0.039459381 0.0095998961
-0.080232784 -0.038483139 0.009600509
0.036963344 0.084523201 0.0096775349
0.03789347 0.085499428 0.0096781477
0.039233249 0.086533196 0.010276323
-0.084776029 -0.040625907 0.010617075
-0.083540149 -0.039328765 0.010617879
-0.082464531 -0.038219262 0.0096183978
-0.081436135 -0.036922771 0.0096206861
0.035346597 0.085649706 0.0096974401
0.03659191 0.08673951 0.0096966494
0.037576023 0.087792017 0.010697502
-0.087617993 -0.041011527 0.010634488
-0.086073153 -0.039390065 0.010635494
-0.084837265 -0.038092922 0.010636298
-0.083683193 -0.036886919 0.010137017
-0.082525939 -0.035677526 0.0096377162
0.034050141 0.086677969 0.0097143333
0.035228517 0.087916821 0.0099651227
0.036278948 0.089027815 0.01071592
0.037519913 0.090113886 0.010715122
-0.088915072 -0.039775725 0.010652907
-0.087370224 -0.038154263 0.010653943
-0.086134344 -0.036857121 0.010654747
-0.084982514 -0.035648983 0.010155462
-0.083517469 -0.034112021 0.0096564218
0.032497432 0.087784842 0.0097336415
0.033866812 0.089092515 0.010233606
0.034981869 0.090263613 0.010734368
0.036233053 0.090927511 0.010730367
-0.089887895 -0.038848847 0.010666751
-0.088667311 -0.036918465 0.010672362
-0.087755717 -0.035312351 0.010677801
-0.086519822 -0.034015205 0.010678604
-0.085125171 -0.032543194 0.0097906347
-0.0842297 -0.030950205 0.0096849762
0.029245948 0.088151149 0.0097595807
0.030785756 0.089114189 0.009866829
0.032124609 0.090511233 0.010756588
0.033368178 0.091491751 0.010755004
-0.088743843 -0.033752248 0.01069642
-0.088141195 -0.032470431 0.010701628
-0.08668299 -0.030929832 0.010202646
-0.085433058 -0.029389838 0.0097051524
0.026378766 0.088399641 0.0097818831
0.027634302 0.089065835 0.0097778775
0.029033078 0.090519898 0.010445378
0.030503238 0.092055999 0.010779642
-0.089227207 -0.031229511 0.010718609
-0.087987423 -0.02983617 0.010520089
-0.086738199 -0.028246827 0.0099229701
-0.085918128 -0.026858313 0.0097274138
0.025087422 0.089216098 0.0097971698
0.026569612 0.090544552 0.010129764
0.027970282 0.091994658 0.010797256
0.02921129 0.093080692 0.010796458
-0.090102106 -0.029983498 0.010734092
-0.089499474 -0.028701697 0.010739329
-0.088043667 -0.02715449 0.010240408
-0.086796068 -0.025607975 0.0097429724
0.022535427 0.089578174 0.0098180687
0.023790924 0.090244405 0.0098140342
0.025198575 0.091695741 0.010481502
0.026673207 0.093230464 0.010815674
0.027924389 0.093894377 0.010811703
-0.090804212 -0.02714926 0.010760166
-0.0895961 -0.025551518 0.010652288
-0.088211231 -0.024052734 0.0097646201
-0.087288789 -0.022758765 0.0097676292
0.019342873 0.090136662 0.0098449886
0.020923788 0.090492859 0.0098363664
0.022383345 0.09200193 0.010281619
0.023815993 0.093478039 0.010837924
0.025119785 0.094586752 0.010836845
-0.091197364 -0.0239907 0.010786412
-0.089744836 -0.022435382 0.010287595
-0.08859805 -0.021200961 0.009788557
-0.087993331 -0.019914681 0.0097937873
0.018051501 0.090953171 0.0098602762
0.01929681 0.092042975 0.0098594856
0.02068246 0.093445599 0.010693391
0.022194626 0.095022812 0.010860977
0.023121515 0.095995694 0.01086158
-0.091974385 -0.02242551 0.010803593
-0.090949573 -0.021133495 0.010805866
-0.089852601 -0.01992972 0.010056936
-0.088871308 -0.018664313 0.0098093469
0.016445015 0.091656014 0.0098769655
0.017948372 0.093215697 0.010127795
0.019352667 0.094637208 0.010878391
0.0208975 0.096258655 0.010879396
-0.092849337 -0.02117946 0.010819077
-0.092246681 -0.019897647 0.010824314
-0.091057874 -0.018630536 0.010575249
-0.089840151 -0.017161814 0.0098274229
0.01358805 0.091480881 0.009896053
0.015113649 0.092851222 0.010061999
0.016510751 0.094251551 0.010895804
0.018055588 0.095873006 0.010896809
-0.0933327 -0.018656725 0.010841265
-0.092307881 -0.017364714 0.010843567
-0.090920493 -0.015834983 0.010011639
-0.089712478 -0.014551898 0.0098458696
0.011036055 0.091842949 0.0099169528
0.012291597 0.092509151 0.0099129174
0.013725773 0.093955271 0.010580162
0.015213632 0.095487393 0.010914223
0.01708276 0.09679988 0.010910654
-0.0942076 -0.01741072 0.010856777
-0.093737729 -0.015878687 0.010864806
-0.092428565 -0.014382756 0.010616522
-0.09122736 -0.012712886 0.010013186
-0.090424664 -0.011390119 0.0098744538
0.0078537297 0.091977827 0.0099406578
0.0094416728 0.092946939 0.010079375
0.011031046 0.094217971 0.010559641
0.012424334 0.095546551 0.010934589
0.013931849 0.096089959 0.010927865
-0.095241621 -0.013950903 0.010889845
-0.094314732 -0.012978028 0.010890448
-0.092867248 -0.011403555 0.010391796
-0.091416247 -0.0098245787 0.0098931296
-0.090811484 -0.0085383486 0.0098983897
0.0053120111 0.091916248 0.0099583417
0.0065572797 0.093006097 0.009957552
0.0079796733 0.094405949 0.010791173
0.0095042475 0.095771536 0.010957089
-0.0965387 -0.0127151 0.010908264
-0.095611811 -0.011742225 0.010908897
-0.094099917 -0.010135717 0.010743377
-0.092717811 -0.0085845022 0.0099116303
-0.091477647 -0.0072828443 0.009912448
-0.090872929 -0.0059965621 0.0099176783
0.0030853772 0.09196832 0.0099746231
0.0040155109 0.092944555 0.0099752359
0.0051482255 0.094042644 0.010725341
0.006657254 0.095596954 0.010976104
0.0082173916 0.096585169 0.010972304
-0.095364049 -0.0088849748 0.010928351
-0.09386868 -0.0072837584 0.01067957
-0.092779256 -0.0060427268 0.0099309497
-0.091418095 -0.0044838497 0.0099328123
0.0012226306 0.092749752 0.0099937273
0.0026803061 0.094116479 0.010243447
0.0038153022 0.095211349 0.010993518
0.005051183 0.096508488 0.010994352
-0.095440544 -0.0057187942 0.01095238
-0.094237722 -0.0044336268 0.010786681
-0.09278962 -0.002843752 0.010288138
-0.09149798 -0.0011795431 0.0099579291
-0.090602838 0.0003680572 0.009963017
-0.0035944167 0.092124447 0.010023437
-0.0023439922 0.093002446 0.010021039
-0.00050442637 0.094016656 0.010348774
0.00095804245 0.095458969 0.011015767
0.0022618384 0.096567683 0.01101469
0.0037694043 0.097111054 0.011007965
-0.095826022 -0.0028768743 0.010976237
-0.094590142 -0.0015797354 0.010977071
-0.093110442 2.3263246e-05 0.010645047
-0.091692619 0.0016133062 0.0099800471
-0.090664275 0.0029098366 0.0099823354
-0.0061361929 0.092062898 0.010041122
-0.0048806407 0.092729107 0.010037117
-0.0033877792 0.094219729 0.01053757
-0.0018991707 0.09570656 0.011037987
-0.00065820152 0.096792631 0.011037189
-0.096798852 -0.0019500093 0.010990081
-0.095676146 -0.00033880907 0.010994022
-0.094342381 0.0012775151 0.010996525
-0.09284617 0.0028875943 0.010747775
-0.091754034 0.0041550403 0.0099993655
-0.090725683 0.0054515782 0.010001654
-0.0086779147 0.092001311 0.010058806
-0.007422409 0.092667557 0.010054801
-0.0062081418 0.093901202 0.010305293
-0.0047411262 0.095320947 0.0110554
-0.0031911617 0.09673129 0.011054832
-0.095119439 0.0028427469 0.011013677
-0.094094627 0.0041347691 0.011015949
-0.092907399 0.0054227291 0.010767044
-0.091815472 0.0066968272 0.010018684
-0.090787083 0.0079933163 0.010020972
-0.011839792 0.091288954 0.010076082
-0.010215297 0.092472747 0.010073293
-0.0087477081 0.093839712 0.010322968
-0.0075830384 0.094935291 0.011072843
-0.00603058 0.09624014 0.011071431
-0.095994346 0.0040887557 0.011029189
-0.095716 0.0056795357 0.011039003
-0.094480105 0.0069766818 0.011039807
-0.093276732 0.008269201 0.01087416
-0.091766708 0.0096069314 0.010182792
-0.090652056 0.011175652 0.010043642
-0.014381565 0.091227405 0.010093767
-0.013151141 0.092221037 0.010292352
-0.011795348 0.09366519 0.010718456
-0.010440295 0.095182918 0.011095062
-0.0088750329 0.095960028 0.01108966
-0.097337358 0.0072243093 0.011062056
-0.096101478 0.0085214479 0.01106286
-0.094865598 0.0098185912 0.011063664
-0.093079805 0.01112384 0.010632041
-0.091813348 0.012693545 0.010348884
-0.090728849 0.014352852 0.010067782
-0.089814059 0.015964514 0.010073217
-0.018814281 0.090484239 0.010119899
-0.017558774 0.091150478 0.010115865
-0.015963389 0.092331707 0.010256101
-0.014485904 0.093614198 0.010683693
-0.013297558 0.095430538 0.011117281
-0.012046365 0.096094452 0.01111328
-0.096162662 0.0110544 0.011082113
-0.094926782 0.012351544 0.011082917
-0.093381949 0.013972991 0.011083922
-0.091933198 0.01559315 0.010585599
-0.090790257 0.016894583 0.0100871
-0.089429133 0.018453497 0.010088963
-0.08832527 0.020133339 0.010093557
-0.021658432 0.089779571 0.010134954
-0.020100504 0.091088891 0.010133549
-0.018875288 0.092323922 0.010384029
-0.017364668 0.093792193 0.010967475
-0.015830515 0.095369197 0.011134926
-0.014579341 0.096033096 0.011130924
-0.096223898 0.013587384 0.011101366
-0.094679028 0.01520879 0.011102371
-0.093134187 0.016830241 0.011103377
-0.091898307 0.018127387 0.01110421
-0.090478197 0.019757494 0.010439464
-0.088991433 0.021388844 0.010107644
-0.088386677 0.022675073 0.010112874
-0.025758045 0.088408627 0.010154042
-0.024507657 0.08928667 0.010151645
-0.022952309 0.090701915 0.010151029
-0.021427087 0.092196465 0.010651269
-0.020217307 0.093362138 0.011151304
-0.018672427 0.094983548 0.011152339
-0.017112296 0.095971763 0.011148539
-0.09287113 0.019054256 0.011118025
-0.091959536 0.020660374 0.011123434
-0.09078031 0.022595579 0.01090718
-0.089272581 0.024045615 0.010329364
-0.08802449 0.025227118 0.010129221
-0.028609892 0.088021688 0.010171523
-0.027044313 0.089013323 0.010167693
-0.025995661 0.090815835 0.010673638
-0.024344431 0.092122376 0.011028728
-0.023074515 0.09360972 0.011173554
-0.021514382 0.094597936 0.011169753
-0.020263204 0.095261842 0.011165751
-0.091727078 0.02415086 0.011147694
-0.090596169 0.025642779 0.01095071
-0.089346543 0.026763221 0.010650092
-0.088168941 0.028076913 0.01031809
-0.087163791 0.029952971 0.010158197
-0.08605992 0.031632811 0.01016279
-0.0345928 0.085651428 0.010196605
-0.033342402 0.086529486 0.010194208
-0.031465542 0.087793581 0.010190217
-0.029914876 0.089219011 0.010356388
-0.028683675 0.090433568 0.010689961
-0.027476609 0.092235893 0.011194767
-0.025926683 0.093646288 0.011194171
-0.091479324 0.027008103 0.011167147
-0.090665564 0.028295001 0.011170917
-0.089640789 0.02958706 0.01117319
-0.088215426 0.031243658 0.010508613
-0.086726047 0.032888275 0.010176848
-0.085485883 0.034189939 0.010177664
-0.084571093 0.035801597 0.0101831
-0.083641 0.036777876 0.010183712
-0.0386848 0.083962843 0.010213269
-0.037124339 0.085166276 0.010211075
-0.035879061 0.086256132 0.010210285
-0.034519412 0.087764628 0.010411766
-0.032906562 0.089099973 0.010810224
-0.031554453 0.090553135 0.011211377
-0.030318568 0.091850281 0.011212181
-0.090613581 0.030513888 0.011187003
-0.089393035 0.032444313 0.011192643
-0.08789251 0.034081433 0.010944101
-0.086743116 0.035413247 0.010445735
-0.085547291 0.036731675 0.010196983
-0.083997093 0.038358763 0.010198005
-0.082658671 0.039980683 0.010200497
-0.081532113 0.041597515 0.01020446
-0.080601975 0.042573754 0.010205073
-0.044326995 0.080647163 0.01022891
-0.043086793 0.08194878 0.010229727
-0.041211184 0.083265834 0.01022613
-0.039660998 0.084892914 0.010227152
-0.038420793 0.086194538 0.010227969
-0.037178323 0.087372027 0.010727877
-0.035632256 0.088870339 0.011227986
-0.03408742 0.090491794 0.011228992
-0.032527238 0.091479965 0.011225191
-0.090056866 0.033695448 0.011206659
-0.089145273 0.035301562 0.011212097
-0.087909393 0.036598705 0.011212901
-0.086673506 0.037895851 0.011213706
-0.085213102 0.039557535 0.010715602
-0.083748467 0.041225933 0.010217527
-0.082508303 0.042527594 0.010218344
-0.081268147 0.043829259 0.010219161
-0.080027938 0.045130875 0.010219978
-0.07879547 0.04675027 0.010223191
-0.077252924 0.048695054 0.010226638
-0.076012768 0.049996715 0.010227455
-0.052139446 0.075053535 0.010243152
-0.051209353 0.076029815 0.010243765
-0.049969152 0.077331431 0.010244552
-0.048093542 0.078648485 0.010240955
-0.046543352 0.080275573 0.010241977
-0.045303147 0.081577197 0.010242794
-0.044062991 0.082878858 0.01024361
-0.042505439 0.084426217 0.010577304
-0.040950108 0.085950516 0.01099426
-0.039710052 0.087187544 0.011244595
-0.03847421 0.088484734 0.0112454
-0.036921706 0.089789547 0.011244017
-0.088882178 0.037525538 0.011226716
-0.087970585 0.039131649 0.011232154
-0.086591683 0.041065864 0.011236656
-0.08520516 0.042683482 0.01123877
-0.083996378 0.043996628 0.011073248
-0.082786568 0.045310937 0.01090767
-0.081575297 0.046627443 0.010742102
-0.080053277 0.048270117 0.010576829
-0.078504883 0.049895342 0.010577816
-0.077217042 0.051023137 0.010443643
-0.075748801 0.052228458 0.010242126
-0.07438764 0.053787325 0.010243989
-0.072973743 0.055792592 0.010248786
-0.072043613 0.056768827 0.010249399
-0.065842755 0.063277103 0.010253483
-0.064912625 0.064253338 0.010254096
-0.063672468 0.065554999 0.010254914
-0.062122274 0.067182094 0.010255935
-0.060572039 0.068809137 0.010256956
-0.059331875 0.070110798 0.010257773
-0.058091715 0.071412466 0.01025859
-0.056223761 0.073047206 0.010257389
-0.054665878 0.074356563 0.010255985
-0.053546511 0.075867161 0.010459214
-0.05249133 0.07719855 0.010594943
-0.051086981 0.078756049 0.010888129
-0.049423549 0.08016783 0.01083321
-0.048141874 0.081673183 0.010930487
-0.046898905 0.082933314 0.011097617
-0.045657024 0.084192313 0.011264774
-0.044112142 0.085813724 0.011265809
-0.042243019 0.087126203 0.011262209
-0.041007172 0.088423386 0.011263015
-0.039446995 0.089411564 0.011259213
-0.085266389 0.045216467 0.011258023
-0.084143683 0.04682767 0.011261994
-0.083118863 0.048119687 0.011264266
-0.08157403 0.049741138 0.01126527
-0.080029197 0.051362589 0.011266306
-0.078565657 0.05256423 0.011064756
-0.077279948 0.053690765 0.010930642
-0.075748295 0.055329442 0.0108207
-0.074230626 0.056984682 0.010599956
-0.0729919 0.058284853 0.01060077
-0.071773879 0.059610672 0.010435238
-0.070554823 0.060937658 0.010269739
-0.069004633 0.062564746 0.01027076
-0.067454398 0.064191788 0.010271781
-0.066214234 0.065493457 0.010272598
-0.064974077 0.066795118 0.010273416
-0.06340263 0.068381168 0.01049619
-0.061843231 0.069986224 0.010608084
-0.060604468 0.07128635 0.010608897
-0.059365746 0.072586522 0.010609739
-0.057800896 0.074166678 0.010832531
-0.056245673 0.075767837 0.010944476
-0.05519167 0.077097058 0.011080164
-0.054075718 0.078602746 0.011283345
-0.05253084 0.080224156 0.011284379
-0.050661758 0.08153668 0.011280781
-0.04942587 0.082833827 0.011281584
-0.048189983 0.084130973 0.011282388
-0.046954099 0.085428111 0.011283223
-0.070203342 0.064272732 0.011292052
-0.068967454 0.06556987 0.011292856
-0.067731611 0.066867061 0.011293661
-0.066495731 0.068164207 0.011294466
-0.059448119 0.07543128 0.011298141
-0.057520282 0.076935284 0.01129555
-0.056284394 0.07823243 0.011296354
0.058287639 -0.061152898 0.0074434862
0.059532121 -0.059846755 0.0074443156
0.061087713 -0.058214068 0.0074453228
0.06233215 -0.056907889 0.0074461531
0.048581459 -0.068725109 0.007456529
0.049825896 -0.067418925 0.0074573588
0.051700309 -0.065778524 0.007456169
0.053263571 -0.064464621 0.0074547427
0.054508049 -0.063158482 0.007455572
0.05575249 -0.061852299 0.0074564018
0.056996971 -0.060546156 0.0074572014
0.058552559 -0.058913473 0.0074582687
0.060108107 -0.057280745 0.0074592466
0.061352588 -0.055974603 0.0074600759
0.062384509 -0.054673593 0.00746238
0.063826129 -0.052724671 0.0074665435
0.065381676 -0.051091943 0.007467581
0.066626154 -0.049785804 0.007468381
0.067870595 -0.04847962 0.0074692108
0.069115072 -0.047173481 0.0074700406
0.070670664 -0.045540795 0.0074710473
0.072226211 -0.043908067 0.0074720848
0.041333344 -0.072409682 0.0074809082
0.042588066 -0.071528606 0.007478483
0.044377606 -0.070148483 0.0074759945
0.046030879 -0.068786852 0.007474313
0.047275364 -0.067480713 0.0074751126
0.048519801 -0.066174529 0.0074759428
0.050075393 -0.064541847 0.0074769799
0.051630981 -0.062909164 0.0074779871
0.052875418 -0.06160298 0.0074788169
0.055364382 -0.058990698 0.0074804462
0.056919929 -0.057357971 0.0074814539
0.05847552 -0.055725284 0.007482491
0.059719957 -0.054419104 0.0074833208
0.060964439 -0.053112961 0.0074841203
0.062520027 -0.051480278 0.0074851573
0.064075574 -0.049847551 0.007486165
0.06532006 -0.048541408 0.0074869948
0.066564493 -0.047235232 0.0074877949
0.067808971 -0.045929089 0.0074886242
0.069364563 -0.044296402 0.0074896314
0.07092011 -0.042663675 0.0074906689
0.072164595 -0.041357536 0.0074914983
0.073409073 -0.040051393 0.0074922983
0.074326977 -0.038434099 0.0074977297
0.075692803 -0.036869794 0.0074996101
0.077111632 -0.03485762 0.007504405
0.037227217 -0.074104168 0.0074976254
0.038798191 -0.07310909 0.0074937944
0.040042631 -0.071802907 0.0074946242
0.041287109 -0.070496768 0.0074954242
0.042842701 -0.068864077 0.0074964911
0.044398248 -0.067231357 0.007497469
0.060887396 -0.049924776 0.0075083431
0.062442988 -0.048292089 0.0075093498
0.063687429 -0.046985906 0.0075101503
0.064931907 -0.045679767 0.0075109797
0.066176347 -0.044373587 0.0075118099
0.067731932 -0.042740904 0.007512847
0.069287524 -0.041108213 0.0075138537
0.070531964 -0.039802033 0.0075146542
0.071776442 -0.038495895 0.0075154835
0.073020883 -0.037189707 0.0075162835
0.074576475 -0.035557024 0.0075173508
0.076132067 -0.033924337 0.0075183278
0.0773765 -0.032618154 0.0075191581
0.07840842 -0.031317148 0.0075214622
0.079538926 -0.029694768 0.0075254482
0.032809943 -0.076125145 0.0075141354
0.034751214 -0.074610732 0.0075115263
0.036247615 -0.073170833 0.0075115487
0.037492093 -0.071864694 0.0075123487
0.038736533 -0.070558518 0.0075131785
0.039981015 -0.069252372 0.0075140083
0.063969895 -0.044643857 0.0065254876
0.065218605 -0.043333158 0.0065263305
0.066660911 -0.041628744 0.006862049
0.068160385 -0.03995961 0.0070303995
0.069407023 -0.038651232 0.0070312051
0.070653617 -0.037342809 0.0070320414
0.071900219 -0.03603439 0.007032848
0.073332727 -0.034341764 0.007368586
0.074825972 -0.032679945 0.0075369119
0.076070406 -0.031373765 0.0075377123
0.077314883 -0.030067626 0.0075385417
0.078870475 -0.02843494 0.0075395787
0.080213502 -0.02680739 0.0075420607
0.081343964 -0.025184968 0.0075460472
0.028081596 -0.078472711 0.0075304373
0.029014926 -0.077493072 0.0075310599
0.030585898 -0.076497994 0.0075272289
0.031830378 -0.075191855 0.0075280583
0.03338597 -0.073559172 0.0075291251
0.034941517 -0.071926445 0.007530103
0.036185998 -0.070620306 0.0075309323
0.069199771 -0.035874344 0.006553283
0.070448533 -0.034563687 0.0065541253
0.072009474 -0.032925364 0.0065551484
0.073507018 -0.031259771 0.0067234817
0.074691296 -0.029922964 0.0068916604
0.075810067 -0.028562613 0.0072271321
0.077390775 -0.027171662 0.0074166916
0.079119921 -0.025557823 0.0075591407
0.080364406 -0.024251683 0.00755997
0.081608847 -0.022945499 0.00756077
0.08264076 -0.021644492 0.0075630741
0.083460167 -0.020348655 0.007566853
0.025227623 -0.079179823 0.0075455802
0.026790882 -0.077865928 0.0075441832
0.028035363 -0.076559789 0.0075449832
0.029279847 -0.075253643 0.0075458125
0.030524284 -0.073947459 0.0075466125
0.031970978 -0.07207486 0.0073002009
0.071932137 -0.029726153 0.0065794531
0.073180892 -0.028415494 0.0065802657
0.074429654 -0.027104834 0.0065810783
0.076084234 -0.025839679 0.0069120349
0.077464588 -0.024273017 0.0068304441
0.078863077 -0.022739964 0.0072485637
0.080302745 -0.021701109 0.0075793541
0.08154723 -0.020394966 0.0075801536
0.083102815 -0.018762285 0.0075812205
0.084020771 -0.017145034 0.0075866515
0.017971801 -0.082545578 0.0075723641
0.018905122 -0.081565946 0.0075729867
0.02047614 -0.080570914 0.0075691547
0.022047114 -0.079575837 0.007565354
0.023602704 -0.077943154 0.0075663906
0.025158297 -0.076310463 0.0075673983
0.026402736 -0.075004287 0.0075682281
0.027683666 -0.073749147 0.0074017309
0.029040443 -0.072594501 0.0069005778
0.073119067 -0.025856167 0.006599715
0.074367821 -0.024545508 0.0066005276
0.075928763 -0.02290719 0.0066015506
0.077489711 -0.021268863 0.0066026039
0.078933343 -0.020228049 0.0069333306
0.080047302 -0.01887887 0.0072687725
0.081470184 -0.017206782 0.0076044062
0.083025783 -0.015574094 0.0076054428
0.084077395 -0.014208795 0.007608036
0.084975593 -0.012655801 0.0076131788
0.085795 -0.011359958 0.0076169274
0.014798997 -0.083260417 0.0075897034
0.016370019 -0.082265384 0.0075859018
0.017925562 -0.080632664 0.0075868797
0.019170042 -0.079326518 0.0075877095
0.020414483 -0.078020334 0.0075885393
0.021970075 -0.076387651 0.0075895763
0.076179087 -0.020020153 0.0066212108
0.077427849 -0.018709492 0.0066220537
0.078676596 -0.01739884 0.0066228658
0.079925358 -0.016088177 0.0066236788
0.081350811 -0.01441496 0.0069592781
0.082637623 -0.012712455 0.0076294281
0.083882071 -0.011406271 0.0076302579
0.085247889 -0.0098419664 0.0076321089
0.086355597 -0.008156335 0.0076367259
0.012248466 -0.083322205 0.0076074279
0.013508325 -0.082653686 0.007603419
0.015037909 -0.080841377 0.0074631376
0.016352493 -0.079185784 0.0072755157
0.079848059 -0.012889011 0.0066479826
0.081409007 -0.011250682 0.0066490062
0.08245267 -0.009894859 0.0071516689
0.084131554 -0.0085291956 0.007649879
0.085687153 -0.0068965075 0.0076508564
0.086293943 -0.0056057628 0.0076561105
0.0096978853 -0.083383955 0.0076251822
0.010957751 -0.082715429 0.0076211439
0.012258218 -0.080913417 0.0071966816
0.013648928 -0.079574674 0.0069586011
0.079770766 -0.0096898405 0.0066722869
0.081019484 -0.0083791371 0.0066731297
0.082655117 -0.0071628587 0.007295534
0.084381051 -0.0056521166 0.0076694107
0.085625492 -0.0043459316 0.0076702405
0.086232319 -0.0030552356 0.0076754941
0.0052498449 -0.084129706 0.0076513984
0.0067678611 -0.083582543 0.0076446226
0.0080806827 -0.082466103 0.007643559
0.0093251588 -0.081159972 0.0076443884
0.010743304 -0.07972426 0.006787722
0.079708897 -0.0071304683 0.0066917362
0.081259765 -0.0057955505 0.0068905633
0.082585722 -0.0042902171 0.0073173465
0.083992898 -0.0027904736 0.0076934854
0.085237339 -0.0014843001 0.0076942854
0.086155288 0.00013295509 0.0076997164
0.086762123 0.0014236586 0.0077049695
0.0037071628 -0.083656646 0.0076659219
0.005203614 -0.082216784 0.0076659145
0.0064480514 -0.080910601 0.0076667443
0.0078059332 -0.079851255 0.0069148657
0.080895826 -0.0032604856 0.0067120278
0.082184285 -0.001582449 0.0073819906
0.083604708 7.121051e-05 0.0077174706
0.084849186 0.0013773463 0.0077182706
0.086215012 0.0029416576 0.007720151
0.00078123854 -0.084025256 0.0076840664
0.0023419233 -0.082605086 0.0076834909
0.0039320295 -0.081055462 0.0074336152
0.0052487538 -0.079913147 0.0069326502
0.08107841 -0.00036423706 0.0068988865
0.082400188 0.0013029129 0.0074852216
0.083543092 0.0026217413 0.0077368543
0.085098647 0.0042544743 0.0077378917
0.086441711 0.0058819815 0.0077403733
-0.0014530917 -0.083973013 0.0077003855
-0.0005197635 -0.082993373 0.0077010081
0.00091638515 -0.081170186 0.0073292884
0.0023973717 -0.079746 0.0067042606
0.0036461344 -0.078435339 0.0067050727
0.081068844 0.0028257149 0.006755963
0.082249202 0.0041433526 0.0069239899
0.083572201 0.0056419652 0.0075090537
0.085348137 0.0071315458 0.0077574532
0.08638005 0.0084325531 0.0077597573
0.08719945 0.0097283926 0.0077635362
-0.0043301601 -0.083723694 0.0077227708
-0.0030702944 -0.083055161 0.0077187624
-0.0017905426 -0.081253685 0.0072944239
-0.00050488778 -0.07981275 0.0069244578
0.00075913436 -0.078185156 0.0067275409
0.082229532 0.007023348 0.0069788517
0.083649606 0.0082475776 0.0074444953
0.08528652 0.0096820835 0.0077768369
0.086318433 0.010983088 0.0077791414
-0.0075234836 -0.083588369 0.0077465614
-0.0059473664 -0.08280585 0.0077411775
-0.0046850145 -0.081555203 0.007574765
-0.0033262069 -0.080065005 0.0068855891
-0.0018002127 -0.078247145 0.0067453356
0.080617502 0.0082565956 0.0067995358
0.082297288 0.0097531714 0.0072986716
0.08365389 0.011237583 0.0078000524
0.084898368 0.012543723 0.0078008818
0.085949987 0.013909022 0.007803475
0.086423106 0.015451715 0.0078115663
-0.010320882 -0.083996378 0.0077635106
-0.0088244816 -0.082556486 0.0077635031
-0.0075553916 -0.081333637 0.0075135548
-0.0062326831 -0.080275126 0.0067619258
-0.0046717417 -0.078636803 0.0067629488
0.080867857 0.011143588 0.0068191658
0.082122602 0.012790283 0.0075725075
0.083265729 0.014099219 0.007824067
0.084510222 0.015405362 0.007824867
0.08587604 0.016969666 0.0078267474
-0.013246858 -0.084364958 0.0077816555
-0.011686122 -0.082944818 0.0077810795
-0.010063249 -0.081563294 0.0070296843
-0.008792026 -0.080337115 0.0067797201
-0.0075433138 -0.079026416 0.0067805629
-0.0060416865 -0.077581614 0.0067805666
0.07955727 0.012392254 0.006837802
0.081118219 0.014030581 0.0068388255
0.082060941 0.015343 0.0075919079
0.08320412 0.016649757 0.0078434208
0.084759712 0.018282438 0.0078444881
0.085677616 0.019899737 0.0078499196
-0.015807671 -0.084001638 0.0078026354
-0.014547805 -0.083333105 0.0077985968
-0.013109607 -0.081594273 0.0071762577
-0.011679069 -0.080086887 0.0068021887
-0.010430306 -0.078776225 0.0068030013
-0.0091815516 -0.077465557 0.0068038437
0.07947994 0.015591469 0.0068621067
0.080728695 0.016902123 0.0068629496
0.081909224 0.018211702 0.0070308866
0.08328291 0.01956873 0.0077217263
0.085009165 0.021159565 0.0078640496
-0.017493257 -0.082894042 0.0078228759
-0.0161804 -0.081777655 0.0078218412
-0.014847928 -0.080296099 0.0071089733
-0.013317307 -0.078526042 0.0068254694
0.07848154 0.017167799 0.0068809539
0.079303719 0.018468145 0.006884723
0.080339208 0.019773627 0.0068870429
0.082052164 0.021092299 0.0073131891
0.083208025 0.022667125 0.0077452799
0.084428191 0.024080316 0.0078898873
0.084901318 0.025623016 0.0078979488
-0.019990837 -0.082507931 0.0078435745
-0.019057509 -0.081528291 0.0078441976
-0.017813027 -0.080222152 0.0078449966
-0.016188839 -0.078915693 0.0068430831
-0.014627894 -0.07727737 0.0068441061
0.079241894 0.021027474 0.0069041718
0.080277383 0.022332955 0.0069064917
0.081770159 0.023966569 0.0070746131
0.082988381 0.025576703 0.0079112798
0.084232859 0.026882838 0.0079120798
-0.021608047 -0.081590079 0.0078619216
-0.020363608 -0.080283903 0.0078627514
-0.019089207 -0.079140991 0.0073621105
-0.017499428 -0.077667028 0.0068616895
0.078966752 0.023581669 0.0069250995
0.0805277 0.025219994 0.0069261524
0.081884921 0.026839148 0.0074284882
0.082926765 0.028127234 0.0079306336
0.083958678 0.029428242 0.0079329377
-0.023847515 -0.081325285 0.0078798831
-0.02291414 -0.08034569 0.0078805052
-0.021669706 -0.079039507 0.0078813061
-0.020384548 -0.077975281 0.0071299858
-0.018810051 -0.076418318 0.0068803271
0.077968359 0.025157999 0.0069439467
0.079217114 0.026468659 0.0069447588
0.080778062 0.028106978 0.0069457823
0.081620663 0.029371629 0.0079492182
0.082986489 0.030935934 0.0079510687
-0.025716692 -0.080541156 0.0078990376
-0.024220238 -0.079101294 0.0078990599
-0.023272807 -0.077698223 0.0072359876
-0.02200924 -0.076495789 0.0069025848
-0.020437995 -0.075284012 0.0069003715
0.076985389 0.026094534 0.0069579091
0.077578872 0.028029503 0.00696804
0.079139777 0.029667865 0.0069690635
0.080254324 0.030961348 0.0073040947
0.081870161 0.032248709 0.0079688085
0.082788102 0.033865951 0.00797424
-0.028979437 -0.080173559 0.007925069
-0.027408466 -0.07917849 0.0079212673
-0.025835659 -0.077706233 0.0074209147
-0.02489624 -0.076245606 0.006925053
-0.023647478 -0.074934945 0.0069258655
0.076252773 0.029918052 0.0069915322
0.077501535 0.031228712 0.0069923447
0.07875029 0.032539375 0.0069931871
0.08028163 0.033811014 0.0078806393
0.081600256 0.035496052 0.007994825
-0.030596647 -0.079255715 0.007943416
-0.029036822 -0.077676266 0.0077773812
-0.027455579 -0.076307595 0.0069428473
-0.026206821 -0.074996933 0.0069436599
-0.024942596 -0.07432612 0.0069396175
0.076404214 0.032482557 0.0070095034
0.07743971 0.033788044 0.0070117936
0.078867987 0.035403401 0.0073469561
0.080160491 0.03699239 0.0080162166
0.081093818 0.037972033 0.0080168396
-0.032836109 -0.078990914 0.0079613775
-0.031902745 -0.078011319 0.0079619698
-0.030336618 -0.076536983 0.0074617234
-0.028766207 -0.075058892 0.0069614844
-0.027829641 -0.074075893 0.0069620861
0.075520165 0.033741578 0.0070251548
0.076129124 0.035036705 0.0070304302
0.077377833 0.036347408 0.0070312438
0.078674436 0.037934639 0.0077005019
0.07988631 0.039537795 0.0080370754
-0.034453314 -0.078073062 0.0079797246
-0.033111688 -0.076337799 0.0076496811
-0.031695437 -0.074992962 0.0071257087
-0.030404406 -0.073498085 0.0069847647
0.074803025 0.03692526 0.0070539229
0.07573963 0.037908204 0.007054524
0.077157088 0.039356284 0.0074302056
0.078792773 0.040787317 0.0080541549
0.079399571 0.042078063 0.0080594085
-0.036692739 -0.077808306 0.0079976562
-0.035759412 -0.076828673 0.0079982784
-0.034527175 -0.075062759 0.0074311458
-0.033291444 -0.07324785 0.0070072338
0.074101351 0.039469097 0.0070778057
0.075751178 0.040870544 0.007409784
0.077181123 0.04204037 0.0078749815
0.078518547 0.043332759 0.0080750138
-0.03863648 -0.076579347 0.0080206934
-0.037392929 -0.075325109 0.0078544561
-0.036111936 -0.073820114 0.0071659954
-0.034602031 -0.071999185 0.0070258407
0.072790764 0.040717762 0.0070964424
0.074039519 0.042028427 0.0070972545
0.075682424 0.043455262 0.0077211689
0.077098481 0.044893391 0.0080967834
0.077378787 0.046495207 0.0081066387
-0.041202445 -0.076003492 0.0080432566
-0.040269069 -0.075023897 0.0080438787
-0.039032076 -0.07394924 0.0072929822
-0.037473567 -0.072388843 0.0070434539
0.071792372 0.042294096 0.0071152598
0.072728895 0.043277133 0.0071158921
0.074226044 0.044898704 0.0072839037
0.075465903 0.046448853 0.0081199389
0.076399222 0.047428489 0.008120561
-0.042819653 -0.07508564 0.0080616027
-0.041575212 -0.073779464 0.0080624335
-0.040345136 -0.072778456 0.0070610382
-0.038784195 -0.07114014 0.0070620612
0.071418308 0.044525802 0.0071345284
0.072979249 0.046164121 0.0071355514
0.074159801 0.047693245 0.0081385225
0.075404234 0.048999421 0.0081393234
-0.044125747 -0.073841251 0.0080801873
-0.043028928 -0.072465017 0.0074825538
-0.041983377 -0.071217611 0.0070843189
-0.040422432 -0.069579288 0.007085342
0.070092261 0.046414316 0.0071579902
0.071341008 0.047724966 0.0071588326
0.072819762 0.049127072 0.0075587132
0.07409814 0.050243821 0.0081579071
-0.046691705 -0.073265381 0.0081027802
-0.045758378 -0.072285749 0.0081034023
-0.04472471 -0.071099371 0.0075047947
-0.043621618 -0.069656767 0.0071075996
-0.042120039 -0.068211928 0.0071076341
0.068781629 0.047663022 0.0071766274
0.069702767 0.04928581 0.0071821134
0.071299903 0.050730415 0.0077814884
0.072465546 0.051799275 0.0081811221
0.072745852 0.05340109 0.0081909765
-0.048640586 -0.071823873 0.0081273708
-0.047390964 -0.070730284 0.0081265876
-0.04618096 -0.069718756 0.0071254238
-0.044932209 -0.068408102 0.0071262363
-0.043995637 -0.067425109 0.0071268682
0.068392143 0.05053452 0.0072007207
0.069770247 0.052110165 0.0077026091
0.070832916 0.053354777 0.0082043074
0.07176625 0.054334421 0.0082048997
-0.049941543 -0.070792034 0.0081443414
-0.048707888 -0.069559038 0.0078946948
-0.047491543 -0.068470083 0.0071440306
-0.046242788 -0.067159437 0.007144873
0.067081556 0.051783193 0.0072193574
0.06855192 0.05338937 0.0074708033
0.069526821 0.05459917 0.0082228612
0.070460156 0.055578802 0.0082234843
-0.051499601 -0.069681354 0.0081637036
-0.050026502 -0.068386212 0.0076627918
-0.048802175 -0.067221381 0.0071626678
-0.04755342 -0.065910727 0.0071634804
0.06608317 0.053359523 0.0072382046
0.067331873 0.054670226 0.0072390176
0.068220727 0.055843562 0.008241416
0.069154054 0.056823194 0.0082420381
-0.052864842 -0.068629786 0.0081812721
-0.051680483 -0.066923104 0.0073520788
-0.050440412 -0.065660536 0.007185949
-0.04912306 -0.06454026 0.0071848617
0.064764805 0.054928165 0.0072592543
0.065693632 0.05623107 0.0072622984
0.066797346 0.057266325 0.0078621088
0.06784796 0.058067594 0.0082605919
-0.05449748 -0.067074299 0.0082044881
-0.053327411 -0.065410346 0.0072084172
-0.052078649 -0.064099684 0.0072092297
-0.051142093 -0.063116692 0.0072098617
0.06311883 0.056808922 0.0072849775
0.064055391 0.057791919 0.0072855796
0.065352671 0.058891941 0.0078845015
0.06652648 0.059949592 0.0082840445
-0.056130107 -0.065518789 0.0082276734
-0.054637991 -0.064161681 0.0072270539
-0.053389281 -0.062850975 0.0072278669
-0.052452717 -0.061867986 0.0072284685
0.062744811 0.059040584 0.0073042158
0.063820951 0.060274519 0.0078057125
0.064893834 0.061505094 0.0083071999
-0.057436205 -0.0642744 0.008246257
-0.055914056 -0.062776804 0.0077464487
-0.054699864 -0.061602309 0.0072465036
-0.053763304 -0.060619321 0.0072471052
0.061434187 0.060289294 0.0073228236
0.062512606 0.061521053 0.0078242933
0.063898854 0.063076034 0.008326021
-0.058742262 -0.063030049 0.0082648108
-0.057222396 -0.06153027 0.0077650594
-0.056010451 -0.06035364 0.00726511
-0.055073891 -0.059370652 0.0072657419
0.058859374 0.060867153 0.0073455023
0.060123596 0.061537962 0.0073414603
0.061372358 0.062848628 0.0073422724
0.062592767 0.06432043 0.0083445758
-0.060374897 -0.061474551 0.0082879961
-0.058884621 -0.060059316 0.0074544726
-0.0576487 -0.0587928 0.0072883912
-0.056712128 -0.057809807 0.0072890227
0.057548799 0.062115822 0.007364139
0.058485359 0.063098803 0.0073647411
0.059734114 0.064409472 0.0073655536
0.060960174 0.06587588 0.0083677601
-0.062007517 -0.059919044 0.0083112111
-0.060535695 -0.058542609 0.0073108594
-0.059286933 -0.057231952 0.007311672
0.05591055 0.063676663 0.0073874202
0.056847114 0.064659648 0.0073880218
0.058095872 0.065970324 0.0073888348
-0.064884596 -0.059669726 0.0083335666
-0.063329048 -0.058717031 0.0081628673
-0.061846323 -0.057293899 0.0073294966
-0.060592391 -0.056196533 0.0073286905
0.054287776 0.064597666 0.0074058161
0.055536486 0.065908358 0.007406659
0.056625012 0.067130506 0.0079079811
-0.065864153 -0.058736447 0.0083474899
-0.064651705 -0.057513945 0.0080145951
-0.063156903 -0.05604523 0.0073481034
-0.062220331 -0.055062238 0.0073487349
0.052977145 0.065846376 0.0074244533
0.054225896 0.06715703 0.0074252659
0.055395391 0.06842263 0.0076763229
-0.067170255 -0.057492055 0.0083660437
-0.065959305 -0.056268103 0.0080331378
-0.064467482 -0.054796562 0.0073667401
-0.063530922 -0.053813569 0.0073673418
0.051879834 0.067100227 0.007441612
0.05291532 0.068405703 0.0074439025
0.054164074 0.069716357 0.0074447151
-0.072255984 -0.058253206 0.0083966842
-0.071011499 -0.056947064 0.008397514
-0.069113992 -0.056263097 0.0083890818
-0.067593798 -0.05471085 0.0080564041
-0.066105776 -0.053235676 0.0073900213
-0.065169208 -0.05225268 0.0073906532
0.050340515 0.068983562 0.0074665817
0.051277079 0.069966547 0.0074671833
-0.072924435 -0.056993384 0.0084108151
-0.071991108 -0.056013744 0.0084114373
-0.07074663 -0.054707598 0.0084122671
-0.069191031 -0.053074908 0.0084133036
-0.067744017 -0.051674828 0.0074133025
-0.066495255 -0.05036417 0.0074141151
0.048702233 0.070544444 0.0074898629
0.049638793 0.071527436 0.0074904645
-0.071415074 -0.053447768 0.0084263673
-0.070497133 -0.051830523 0.0084318584
-0.068997554 -0.05031142 0.0079324041
-0.067805842 -0.049115501 0.0074327514
-0.067196935 -0.047820337 0.0074380278
-0.071492113 -0.050259579 0.0084506199
-0.070305891 -0.049064882 0.0079509839
-0.069116421 -0.047866836 0.0074513881
-0.068179905 -0.046883803 0.0074519906
-0.072798207 -0.049015183 0.0084691737
-0.071760684 -0.047587626 0.0078723468
-0.070754714 -0.046305954 0.0074746697
-0.069162838 -0.045947313 0.007465953
0.043818429 0.073947288 0.0075499658
-0.074430846 -0.047459684 0.0084923897
-0.073430307 -0.046179276 0.0080946982
-0.072392955 -0.044745103 0.0074979505
0.042180192 0.07550814 0.007573247
-0.075752325 -0.045577686 0.0085157817
-0.074885108 -0.044702012 0.008016061
-0.073703542 -0.043496437 0.0075165574
-0.073094629 -0.042201262 0.0075218333
0.039620813 0.075446196 0.0075910715
0.040869564 0.07675685 0.0075918837
0.042430509 0.078395166 0.0075929072
-0.07705842 -0.044333287 0.0085343355
-0.076125093 -0.043353654 0.0085349586
-0.075014122 -0.042247765 0.007535194
-0.074077599 -0.041264731 0.0075358264
0.038310226 0.076694861 0.0076096784
0.039558981 0.078005515 0.0076105203
0.041119926 0.079643831 0.0076115439
-0.077431187 -0.042109266 0.0085535124
-0.076289691 -0.040950064 0.0078039262
-0.075075991 -0.039688397 0.0075546438
0.036687452 0.077615865 0.0076281042
0.038248397 0.07925418 0.0076291272
0.039678238 0.080780528 0.0081302905
0.040792737 0.081975766 0.0086312322
-0.078752667 -0.040227257 0.0085769352
-0.077842735 -0.039279532 0.0084108328
-0.076714233 -0.038127553 0.0075779245
-0.075777672 -0.03714456 0.0075785564
0.033457328 0.078818068 0.0076601016
0.035049159 0.079176746 0.0076513859
0.036582354 0.080789827 0.0077635515
0.037915628 0.082225129 0.0086536473
0.039228491 0.083341517 0.0086525232
-0.079451978 -0.037692118 0.0086007426
-0.07831569 -0.036521498 0.0078512654
-0.077103719 -0.035256047 0.0076020183
0.032157049 0.079640195 0.0076754717
0.033410929 0.080737598 0.0076746666
0.034849156 0.082260959 0.0081757382
0.036283039 0.083780587 0.0086768325
-0.080545507 -0.036442596 0.0086178221
-0.079550393 -0.035185698 0.0083700754
-0.078102157 -0.033679672 0.0076208659
-0.077181056 -0.032056835 0.0076263528
0.030851584 0.080675602 0.0076924907
0.032100346 0.081986263 0.0076933033
0.033500597 0.083468989 0.0083610062
0.034982085 0.084812425 0.0086937733
-0.081753008 -0.034876827 0.0086380579
-0.080819681 -0.033897191 0.0086386809
-0.079387441 -0.032403044 0.0078061889
-0.07806506 -0.030797852 0.0076420032
0.028604437 0.080941282 0.0077104955
0.029540999 0.081924275 0.0077110976
0.030865084 0.08344689 0.0079129701
0.032351896 0.084751725 0.0085121104
0.033359732 0.08594282 0.0087137334
-0.082125783 -0.032652799 0.0086572347
-0.080671556 -0.031127512 0.0079914685
-0.079162382 -0.029544007 0.0076591326
-0.078553468 -0.028248845 0.0076644085
0.026981616 0.08186233 0.0077289222
0.028230371 0.083172984 0.0077297343
0.029715054 0.084731773 0.0080640363
0.031120263 0.086207621 0.0087316949
0.03238013 0.086876146 0.0087276567
-0.083439596 -0.031089587 0.008678223
-0.082272418 -0.029533817 0.0082370285
-0.08080066 -0.02798312 0.0076824138
-0.0798641 -0.027000135 0.0076830457
0.023751535 0.083064489 0.0077608889
0.025343379 0.083423175 0.0077522029
0.026601383 0.0849289 0.0078972504
0.028146479 0.086193882 0.0085028261
0.029495351 0.087444298 0.0087524764
-0.084753394 -0.02952636 0.0086992113
-0.083926812 -0.028132031 0.0085036969
-0.082659058 -0.026526835 0.0079064872
-0.081403419 -0.025116801 0.0077080149
0.022451252 0.083886608 0.0077762892
0.023705134 0.084984012 0.0077754837
0.025124658 0.086459845 0.0084429858
0.026615705 0.087799892 0.0087756533
-0.085240096 -0.026986133 0.0087215444
