# .PCD v0.7 - Point Cloud Data file format
VERSION 0.7
FIELDS x y z
SIZE 4 4 4
TYPE F F F
COUNT 1 1 1
WIDTH 1269
HEIGHT 1
VIEWPOINT 0 0 0 1 0 0 0
POINTS 1269
DATA ascii
-0.07980945 0.020004788 0.0097144237
-0.078045756 0.020536188 0.0087174131
-0.076270245 0.021071466 0.0077204388
-0.07492175 0.02206023 0.0077153076
0.055625852 0.063464254 0.0079165306
0.057477903 0.06409499 0.008918914
0.058817685 0.064561009 0.0099205449
-0.080667511 0.017520554 0.0097415131
-0.079347268 0.017912989 0.0089938091
-0.077577241 0.018439945 0.007996887
-0.075844862 0.019171819 0.0077471877
0.056776378 0.06161258 0.0079467632
0.058204137 0.062092457 0.0084486725
0.060003549 0.062722862 0.009700777
0.061623648 0.062702373 0.0099601615
-0.080585703 0.015325884 0.009520092
-0.07882268 0.015844081 0.0085232742
-0.077211417 0.016511071 0.0077736718
0.058430333 0.05992271 0.0079777529
0.059855666 0.060405053 0.0084795896
0.062007241 0.061039515 0.0095836148
-0.081382714 0.012873815 0.0097971242
-0.080002733 0.013289831 0.0092995055
-0.078296162 0.013769154 0.0080528148
-0.077007771 0.014725316 0.0077977516
0.060587715 0.058394585 0.0080094691
0.062866919 0.059200533 0.0093453648
0.064912103 0.059342466 0.010021746
-0.081019431 0.010598117 0.0098283896
-0.079480432 0.011215278 0.0088290144
-0.077709146 0.011723012 0.0078323605
0.061738249 0.056542911 0.0080397017
0.063158713 0.057030238 0.0085414555
0.064985409 0.057678923 0.0095434561
0.066782758 0.058103357 0.010048147
-0.08193709 0.0077266735 0.0098600974
-0.080719031 0.0086362725 0.0093552107
-0.078954726 0.0091352537 0.0083586331
-0.077565446 0.0095477337 0.0078610824
0.063895613 0.055014838 0.008071417
0.065723367 0.055670395 0.0090733524
0.067539275 0.056322131 0.010075252
-0.08145462 0.0062254588 0.0098820636
-0.080136135 0.0065928539 0.0091347005
-0.078368448 0.0070863599 0.0081381723
-0.076918319 0.0075342008 0.0078905597
0.064656623 0.053223044 0.0080986908
0.066415288 0.053658754 0.0088530425
0.068230778 0.054316871 0.009854842
-0.08131177 0.0040629501 0.0099106459
-0.079552539 0.0045472188 0.0089142192
-0.077943243 0.0055386685 0.0079104304
-0.076432988 0.0060240752 0.0079126684
0.065531507 0.051652987 0.0081237592
0.066946395 0.052147515 0.0086254003
0.068923004 0.052309405 0.0096344901
0.07048811 0.05230093 0.010143422
-0.080829278 0.0025616793 0.009932613
-0.079068631 0.0030415233 0.0089362413
-0.077457912 0.0040285434 0.0079325382
0.065855056 0.050646275 0.0081384974
0.067527108 0.050628271 0.0081481058
0.069406189 0.050805978 0.009656514
0.070809759 0.05130012 0.010158085
-0.080407731 0.0010177426 0.009704777
-0.078703851 0.0014520824 0.00845866
-0.077032514 0.0021288993 0.0079593174
0.068174213 0.048614796 0.0081775831
0.069989368 0.049289174 0.0091792094
0.071292251 0.04979885 0.010180052
-0.081044033 -0.0019241682 0.0099890009
-0.079824626 -0.0010288727 0.0094843023
-0.078057691 -0.00055844354 0.0084881
-0.076667093 -0.00016027169 0.0079907374
0.069324769 0.046763066 0.0082078166
0.070684455 0.047272798 0.0089589693
0.072436027 0.047958065 0.010210098
-0.080561548 -0.003425441 0.010010968
-0.078838617 -0.0029932652 0.0088483309
-0.077026814 -0.0024973524 0.0080187321
-0.076181747 -0.0016703934 0.0080128452
0.069971889 0.044749588 0.0082372939
0.071380235 0.045254264 0.0087387562
0.073131137 0.045946654 0.0099898055
-0.080418691 -0.005587948 0.010039549
-0.078233398 -0.0050329473 0.0087112607
-0.076379687 -0.0045108884 0.0080482103
0.070618987 0.042736106 0.0082667712
0.072026394 0.04324374 0.0087681962
0.073826969 0.04393303 0.0097695421
-0.079835884 -0.0076387362 0.0098190866
-0.077626891 -0.0070749647 0.0085741943
-0.075732574 -0.0065243645 0.0080776876
0.071104325 0.041225985 0.0082888789
0.072672561 0.041233212 0.0087976372
0.074471235 0.041928407 0.0097989086
-0.080633461 -0.010073802 0.010095907
-0.079252377 -0.0096917376 0.0095987106
-0.077019922 -0.0091184014 0.0084371157
0.073371224 0.039208226 0.0085775107
0.075115494 0.03992378 0.0098282443
0.076671466 0.039933566 0.010336895
-0.079990134 -0.012075476 0.010125237
-0.078608125 -0.011696303 0.0096280761
-0.076373428 -0.011129948 0.0084665688
0.074070595 0.037181027 0.0083574718
0.075759768 0.037919153 0.0098575801
0.077153943 0.038432352 0.010358862
-0.079426743 -0.014148365 0.0098216338
-0.07737904 -0.013441749 0.0088239852
-0.075966679 -0.012708713 0.0081557566
0.074555933 0.035670903 0.0083795795
0.076458968 0.035897605 0.0096374517
0.077797264 0.036430679 0.01038819
-0.078983545 -0.016086649 0.0099823391
-0.076691397 -0.014745708 0.0085111754
-0.075481348 -0.014218835 0.0081778653
0.075041302 0.034160726 0.0084016882
0.076997541 0.034375776 0.0094099985
0.078827828 0.034369443 0.01042043
-0.078169681 -0.01736067 0.0097032413
-0.076285884 -0.016662709 0.0084547326
-0.074996002 -0.015728958 0.008199973
0.075688407 0.032147247 0.0084311655
0.077481464 0.032870077 0.0094320215
0.079423524 0.033088621 0.010440202
-0.077856459 -0.019195953 0.0097285546
-0.07569737 -0.018731257 0.0082345819
0.076335505 0.030133769 0.0084606428
0.078126676 0.030862501 0.0094614243
0.079905994 0.031587407 0.010462198
-0.077251628 -0.021239525 0.0095915236
-0.075050257 -0.020744735 0.0082640592
0.07698264 0.028120235 0.008490121
0.078771889 0.028854923 0.0094908271
0.080549307 0.02958573 0.010491498
-0.076568097 -0.023204697 0.0097872503
-0.074403144 -0.022758272 0.0082935374
0.077629752 0.026106756 0.0085195983
0.079417102 0.026847348 0.009520201
0.081192605 0.027584113 0.010520796
-0.075885043 -0.025168329 0.0099829584
-0.073756017 -0.024771748 0.0083230147
0.078276858 0.02409328 0.0085490756
0.080004789 0.02486481 0.0097989971
0.0816155 0.025695631 0.010547413
-0.075241111 -0.027171938 0.010012312
-0.072996683 -0.026659595 0.0088515524
-0.07143686 -0.026803229 0.0083621293
0.077413738 0.021594334 0.0085763149
0.078811139 0.02213306 0.0090772901
0.080591723 0.022884544 0.010077705
0.081978783 0.023419928 0.010578677
-0.07413429 -0.02905775 0.0098760389
-0.072350539 -0.028670127 0.0088809924
-0.070951514 -0.028313348 0.0083842371
0.078060836 0.019580856 0.0086057922
0.079457305 0.020122534 0.0091067301
0.081235997 0.020879915 0.010107071
0.082622088 0.021418251 0.010607976
-0.073673345 -0.030904669 0.010069016
-0.072096221 -0.030709699 0.0094086593
-0.07069923 -0.030356791 0.008911931
0.078546181 0.018070737 0.0086279009
0.080179095 0.018353464 0.009300177
0.081880257 0.01887529 0.010136407
0.083265394 0.019416634 0.010637275
-0.073396213 -0.032592412 0.010425616
-0.071843363 -0.032744795 0.0099362386
-0.069801062 -0.031579815 0.0087659564
0.079031512 0.01656061 0.0086500086
0.080587864 0.016604835 0.0091582118
0.082524523 0.016870666 0.010165773
0.083747894 0.017915364 0.010659272
-0.071090683 -0.034611933 0.010464487
-0.069057129 -0.033328526 0.0086592324
0.079678647 0.014547078 0.0086794868
0.080997415 0.014853709 0.0090163071
0.083109602 0.014898752 0.010444381
-0.070447363 -0.036613606 0.010493786
-0.068545669 -0.035176218 0.0091525903
0.079822332 0.012371796 0.0087082079
0.081603244 0.01315274 0.0097082863
0.083693951 0.01292911 0.010722961
-0.06946443 -0.037953991 0.010516499
-0.067899816 -0.037185781 0.0091819884
0.079120979 0.0093694991 0.0087428167
0.080469467 0.010358264 0.0087376861
0.082248449 0.011145162 0.0097376592
0.084176451 0.011427839 0.010744958
-0.06898196 -0.039455205 0.010538495
-0.06725397 -0.039195344 0.0092114164
-0.065216906 -0.039243761 0.0085567273
0.07960631 0.0078593735 0.0087649245
0.081058413 0.0083819134 0.0090163955
0.082834043 0.0091742324 0.01001629
0.084658913 0.0099266246 0.010766925
-0.068338647 -0.041456882 0.010567795
-0.066608109 -0.041204903 0.0092408443
-0.064731568 -0.040753886 0.0085788351
0.080253422 0.0058458974 0.0087944018
0.081646673 0.0064077228 0.0092950482
0.083418913 0.0072055161 0.010294864
0.084801771 0.0077641164 0.010795477
-0.06769532 -0.043458555 0.010597094
-0.066086717 -0.043018196 0.0098004006
-0.064299837 -0.042942945 0.0089427065
-0.062915847 -0.042947114 0.0086171934
0.080618851 0.003556726 0.0088258516
0.082234472 0.0044375192 0.0095736869
0.084003314 0.0052407836 0.010573393
0.085284263 0.0062628454 0.010817474
-0.065550655 -0.04497762 0.010628631
-0.063793518 -0.044714045 0.0093850074
-0.06204097 -0.044517174 0.0086422618
0.081044234 0.0016570806 0.0088526309
0.082821563 0.0024695278 0.0098522669
0.084366605 0.0033914021 0.010849182
-0.064406872 -0.046818465 0.010658678
-0.063001782 -0.046490747 0.010162326
-0.061232682 -0.046231393 0.0089187939
0.080181107 -0.00084186066 0.0088798711
0.081574455 -0.00027015724 0.0093803853
0.083346896 0.00054733513 0.010379936
0.084729888 0.0011157015 0.010880417
-0.06230998 -0.048416082 0.010440934
-0.060729433 -0.047998857 0.009361038
-0.059284367 -0.047333684 0.0086938813
0.080666445 -0.0023519841 0.0089019788
0.082436286 -0.0021943001 0.0099099716
0.084064417 -0.0012067623 0.010573138
-0.061279248 -0.049677905 0.010712959
-0.060054597 -0.049672313 0.0092196334
-0.058799025 -0.048843805 0.00871599
0.080648355 -0.0040239119 0.0089233313
0.083171189 -0.0039760335 0.010270334
0.085015588 -0.0032093124 0.010937552
-0.059271097 -0.051438615 0.0099967299
-0.057762373 -0.050917219 0.008748428
0.079947002 -0.0070262076 0.0089579402
0.081237189 -0.0059896992 0.0092018703
0.083872296 -0.0057279095 0.010763449
-0.058398824 -0.053498089 0.010378093
-0.056957215 -0.052626759 0.0090248901
-0.055329327 -0.052726958 0.0087853083
0.079587266 -0.0093632936 0.008985905
0.080432341 -0.0085363332 0.0089800479
0.082316689 -0.0080281077 0.0099841934
0.083884917 -0.007527119 0.010653256
-0.057347476 -0.055039488 0.010803842
-0.056223746 -0.054472286 0.0095527573
-0.054340571 -0.054075278 0.0088081723
0.079790935 -0.011149107 0.0090099862
0.081466123 -0.010286977 0.0095083741
0.083086096 -0.0096263895 0.010675717
-0.055406291 -0.056142423 0.01057889
-0.053568829 -0.055835526 0.0095851878
-0.051793657 -0.055663284 0.0088428482
0.078867823 -0.014037519 0.0090418663
0.080216318 -0.013048752 0.0090367654
0.081996053 -0.012192985 0.010035845
0.083543539 -0.011227903 0.011032233
-0.054380693 -0.057398532 0.010850791
-0.052799698 -0.057587657 0.010362042
-0.050992887 -0.05736931 0.0091192452
-0.049360607 -0.057473026 0.0088797286
0.079071485 -0.015823333 0.0090659475
0.080747724 -0.014954274 0.0095642395
0.082522601 -0.014093575 0.010563236
0.0839068 -0.013503548 0.011063468
-0.052115407 -0.059504796 0.010640516
-0.050268203 -0.059207872 0.009646982
-0.04848573 -0.059043083 0.008904798
0.078148387 -0.018711742 0.0090978574
0.079439886 -0.017666642 0.0093417056
0.081220284 -0.016797671 0.010340651
0.083048739 -0.015987778 0.011090557
0.08505059 -0.015344387 0.011093514
-0.051092219 -0.060758434 0.010912376
-0.049506377 -0.060952492 0.01042371
-0.047687396 -0.060746647 0.009181153
-0.046052705 -0.060852766 0.0089416774
0.07813029 -0.020383669 0.0091192098
0.079916187 -0.019506373 0.010118043
0.081748165 -0.018689673 0.010867901
0.083531231 -0.01748905 0.011112524
-0.048723914 -0.062676489 0.010616901
-0.046931241 -0.062491436 0.0099578751
-0.045225725 -0.061697733 0.0089571727
0.077105373 -0.022379199 0.0091390796
0.078741111 -0.022017134 0.009810335
0.080445796 -0.021396171 0.010645312
0.081833072 -0.020795349 0.011145451
-0.047803767 -0.064118341 0.01097396
-0.046409793 -0.064143322 0.01064873
-0.04464788 -0.063665539 0.0096999863
-0.042840578 -0.062782377 0.0089844791
0.075738825 -0.025039943 0.0091655636
0.077240705 -0.024271483 0.009364116
0.079000719 -0.02389699 0.010169279
0.080754578 -0.02316639 0.011169828
-0.046159532 -0.06579829 0.011004752
-0.04425633 -0.065692566 0.010814047
-0.042046413 -0.064483173 0.0092607783
-0.040569331 -0.064088717 0.0090140197
0.074372247 -0.027700635 0.0091920467
0.075720735 -0.02671187 0.0091869151
0.077473074 -0.026119584 0.0098558953
0.079672888 -0.025986813 0.010949931
0.08095704 -0.024941685 0.011193761
-0.043548048 -0.067248508 0.010787988
-0.041881066 -0.066671044 0.010239913
-0.03966292 -0.066064417 0.0092444839
-0.037243325 -0.065796584 0.0090545872
0.073005699 -0.030361382 0.0092185307
0.074354164 -0.029372562 0.0092133991
0.076347359 -0.028736716 0.010216471
0.078171179 -0.028153704 0.010885985
0.079598509 -0.027586747 0.011220073
-0.042871077 -0.069158196 0.011066336
-0.041231237 -0.068918191 0.010872447
-0.039430149 -0.068218336 0.010573549
-0.037201747 -0.067282729 0.0095739383
-0.035247725 -0.066821299 0.0090789627
-0.034079108 -0.067001045 0.009087814
0.071639121 -0.033022072 0.0092450138
0.072935425 -0.031966493 0.009488754
0.074984819 -0.03138962 0.010242929
0.076542534 -0.030860165 0.010994929
-0.038724553 -0.070033871 0.01110086
-0.036942318 -0.069077775 0.010598542
-0.035020407 -0.068714909 0.0098546278
-0.033063781 -0.068255633 0.0093596326
-0.031190543 -0.067923896 0.0091158766
0.070272557 -0.035682824 0.0092714978
0.071621031 -0.034694001 0.0092663653
0.07342606 -0.033774599 0.010264794
0.075176917 -0.033169191 0.010933568
-0.036127023 -0.070671305 0.011123619
-0.034265462 -0.070343025 0.010879824
-0.032339893 -0.069983914 0.010135972
-0.030404946 -0.069620915 0.0093920808
-0.028529754 -0.069290161 0.0091483481
0.069469362 -0.037792183 0.0092940656
0.071079552 -0.037158865 0.0096283238
0.072563753 -0.036265936 0.01029193
0.074043475 -0.035376046 0.010955509
0.07520128 -0.034521133 0.011284406
-0.033481885 -0.072029538 0.011155904
-0.031618353 -0.071702302 0.010912132
-0.02968692 -0.071346164 0.01016835
-0.027746096 -0.070986181 0.009424529
-0.025868954 -0.070656426 0.0091808196
0.066532597 -0.041327864 0.0093229823
0.067881063 -0.040339042 0.0093178507
0.06979569 -0.039546728 0.009818472
0.071653485 -0.038685806 0.010567887
0.073503114 -0.037827432 0.011317333
0.074843667 -0.036844473 0.011312241
-0.030836735 -0.073387764 0.011188189
-0.02897124 -0.073061578 0.010944441
-0.027011756 -0.07261122 0.010449618
-0.025046378 -0.072158918 0.0099547831
-0.023094269 -0.071801007 0.0092110867
-0.021422235 -0.071818955 0.009220724
0.064722553 -0.043760832 0.0093440386
0.066514514 -0.042999789 0.0093443347
0.068382479 -0.042129878 0.010093721
0.070291936 -0.041336693 0.0105943
0.072144605 -0.040472556 0.011343647
0.074146435 -0.039829109 0.011346633
0.075808637 -0.03984696 0.011356205
0.076809548 -0.039525233 0.011357668
-0.027965151 -0.074305207 0.011216084
-0.026302958 -0.074323066 0.011225626
-0.024341282 -0.073874429 0.010730836
-0.022373209 -0.073425382 0.010236082
-0.0206322 -0.072923698 0.0095726587
-0.019084996 -0.072178513 0.0092384573
0.062972486 -0.045804333 0.009360455
0.065199956 -0.045336351 0.0097002927
0.066972017 -0.044708859 0.010368914
0.068930395 -0.043987636 0.010620654
0.070786081 -0.04311762 0.011369988
0.072787903 -0.042474169 0.011372975
0.074789748 -0.041830782 0.011375932
-0.02354458 -0.075460896 0.011255717
-0.021900067 -0.075055741 0.010926367
-0.019929474 -0.07460694 0.010431662
-0.018087611 -0.073782556 0.0094646402
-0.016409641 -0.073446706 0.0095197586
0.060095668 -0.04895049 0.0093847001
0.061606765 -0.048167966 0.0095831659
0.063529454 -0.04766063 0.0098874308
0.065448828 -0.047154505 0.010191777
0.067473114 -0.046483427 0.011144552
0.06942755 -0.04576268 0.011396332
0.071208946 -0.045006048 0.011396604
-0.019898536 -0.076497406 0.011289495
-0.018024964 -0.076173462 0.011045853
-0.015908008 -0.075348057 0.009963721
-0.014071574 -0.075004891 0.0099029336
-0.01249372 -0.074407987 0.009554063
-0.010239463 -0.073778421 0.0093086315
0.058285628 -0.051383462 0.0094057564
0.060154181 -0.050963696 0.0099108722
0.062041022 -0.05039008 0.010414169
0.064110264 -0.049774326 0.011167977
0.066067189 -0.049051136 0.011419657
0.068069026 -0.048407745 0.011422643
-0.01725339 -0.077855632 0.011321779
-0.015364747 -0.0774327 0.011326932
-0.013374559 -0.076888807 0.011081092
-0.011563711 -0.076040566 0.010330328
-0.009744714 -0.075189717 0.0095795291
-0.0077404412 -0.074641332 0.0093337344
-0.0055649844 -0.074497476 0.0093440972
0.055348862 -0.054919139 0.009434673
0.056919072 -0.054044209 0.0094322404
0.058628399 -0.053117994 0.0099300016
0.060747407 -0.053065222 0.011191342
0.062706836 -0.052339643 0.011443013
0.064547837 -0.051195793 0.011438667
0.066549681 -0.050552405 0.011441654
-0.012880436 -0.078290522 0.011351885
-0.010722113 -0.077894934 0.011158916
-0.0088939499 -0.077203065 0.010860278
-0.0070714974 -0.076356225 0.010109575
-0.0050736689 -0.075908266 0.0096149668
-0.0030659682 -0.075360388 0.0093691992
-0.0008904924 -0.075216584 0.0093795629
0.00061974884 -0.074731119 0.0093818009
0.048948102 -0.059197918 0.0094536571
0.05045836 -0.058712509 0.0094559249
0.052531995 -0.057675771 0.0094542485
0.054285474 -0.056829549 0.0097032227
0.056339916 -0.056430548 0.010459711
0.057514127 -0.055776313 0.010457898
0.059241049 -0.055238787 0.011127406
0.061187483 -0.054484304 0.011462023
-0.008233442 -0.079005361 0.011387156
-0.006240739 -0.07849589 0.01105842
-0.0042437487 -0.077986196 0.010729768
-0.0024073271 -0.077073701 0.010144986
-0.00040084514 -0.076527104 0.0098991944
0.0016095666 -0.07598003 0.0096533932
0.003622191 -0.075432226 0.0094076591
0.0051324507 -0.074946821 0.009409897
0.0065288376 -0.074683152 0.0094143692
0.0088181747 -0.074317552 0.0094225276
0.04305074 -0.063314833 0.0094734263
0.045124378 -0.062278099 0.009471749
0.046916332 -0.061517056 0.0094720451
0.048895534 -0.060781848 0.0097237146
0.050872505 -0.06004731 0.0099754063
0.052945405 -0.059670519 0.010648943
0.054900911 -0.058910362 0.01098353
0.056604736 -0.057928622 0.011147161
0.058327585 -0.05761192 0.011486126
-0.0050878599 -0.080202706 0.011420188
-0.003586483 -0.079720147 0.011422428
-0.0017522806 -0.078778356 0.010920568
0.00025251866 -0.078133993 0.010923564
0.0022574961 -0.077590339 0.010677794
0.0037627427 -0.077207267 0.010431338
0.0052685528 -0.076723255 0.010433562
0.0072828284 -0.076275669 0.0099390652
0.0092935581 -0.075629428 0.0099420799
0.011317198 -0.075180463 0.0094476305
0.01333088 -0.074533254 0.0094506247
0.015506329 -0.074389398 0.0094609875
0.01752001 -0.073742181 0.0094639817
0.019030275 -0.073256776 0.0094662197
0.029098688 -0.070020713 0.0094811898
0.030608932 -0.069535248 0.0094834277
0.032622613 -0.068888038 0.0094864219
0.034636296 -0.068240821 0.0094894152
0.03664998 -0.067593612 0.0094924094
0.038501889 -0.066443041 0.009488035
0.040012151 -0.065957636 0.0094903028
0.041522395 -0.065472171 0.0094925398
0.043475773 -0.064642861 0.0099929078
0.045486502 -0.06399662 0.0099958926
0.047431473 -0.06317164 0.010496251
0.049404271 -0.062436838 0.010747943
0.051374838 -0.06170271 0.010999568
0.053465832 -0.061382931 0.011507241
-0.0012629933 -0.080077574 0.011440049
0.00073885563 -0.079434186 0.011443036
0.0022402306 -0.078951627 0.011445246
0.0039024418 -0.078969479 0.011454817
0.0059042629 -0.078326032 0.011457804
0.0079135913 -0.077883393 0.010963356
0.0099183721 -0.077238977 0.010966321
0.01193049 -0.076694667 0.01072062
0.013944797 -0.076149575 0.010474896
0.015971884 -0.07570117 0.0099804746
0.01798261 -0.075054929 0.0099834595
0.020006547 -0.074506745 0.0097377645
0.022032714 -0.073957883 0.0094920779
0.02354298 -0.07347247 0.0094943158
0.025053238 -0.072987065 0.0094965538
0.027030846 -0.072146729 0.009996905
0.029041557 -0.071500428 0.0099999188
0.031052282 -0.070854187 0.010002904
0.033062991 -0.070207886 0.010005889
0.03507372 -0.069561645 0.010008873
0.03705886 -0.068822041 0.010260535
0.039041784 -0.068083167 0.010512221
0.040547594 -0.067599155 0.010514445
0.042023905 -0.067022316 0.010765356
0.043999929 -0.066284828 0.011017011
0.045972474 -0.065549232 0.011268633
0.047942817 -0.064814419 0.011520309
0.049783818 -0.063670568 0.011515933
0.051785663 -0.063027181 0.01151892
0.0088890456 -0.079023026 0.011483504
0.010390424 -0.078540467 0.011485714
0.012392265 -0.077897079 0.0114887
0.014668135 -0.077533647 0.011496823
0.016567262 -0.077210471 0.011253296
0.01858183 -0.076666169 0.011007611
0.02058663 -0.076021813 0.011010577
0.022380712 -0.075329915 0.010845093
0.023804532 -0.075102784 0.011183521
0.025598617 -0.074410886 0.011018036
0.027603416 -0.07376653 0.011021002
0.029608216 -0.073122166 0.011023998
0.031570535 -0.072285101 0.011524313
0.033572357 -0.071641654 0.011527269
0.035574201 -0.070998266 0.011530256
0.037576042 -0.070354879 0.011533243
0.039577868 -0.069711432 0.011536199
0.041079246 -0.069228873 0.011538438
0.042360194 -0.068633132 0.011537995
0.044421624 -0.067602471 0.011536333
0.045922998 -0.067119911 0.011538543
0.019541537 -0.077807643 0.011527674
0.021042915 -0.077325091 0.011529914
0.022544289 -0.076842539 0.011532154
0.024045652 -0.07635992 0.011534364
0.025547029 -0.075877368 0.011536604
-0.030463926 0.075306132 0.0062811933
-0.028444313 0.075955227 0.0062842062
-0.026424721 0.076604381 0.006287219
-0.024405107 0.077253476 0.006290202
-0.022890413 0.077740341 0.006292454
-0.021375701 0.078227147 0.0062947059
-0.019356105 0.078876302 0.0062977187
-0.017336495 0.079525396 0.0063007316
-0.015316901 0.08017455 0.0063037141
-0.013297289 0.080823645 0.0063067274
-0.03738841 0.070852488 0.0062995148
-0.035873719 0.071339354 0.0063017667
-0.033793971 0.072379097 0.0063001281
-0.031996761 0.073142432 0.0063003749
-0.029977145 0.073791526 0.0063033877
-0.027957553 0.07444068 0.0063063703
-0.026160324 0.075203955 0.0063067069
-0.024080593 0.076243758 0.0063050082
-0.022565899 0.076730624 0.0063072597
-0.021051187 0.07721743 0.0063095121
-0.018755123 0.07758411 0.0063177031
-0.016849736 0.07801085 0.0063228952
-0.014830121 0.078659944 0.0063259085
-0.012810529 0.079309098 0.006328891
-0.010790918 0.079958193 0.0063319039
-0.0087713245 0.080607347 0.0063349162
-0.0070943623 0.080589324 0.0063445568
-0.0055796672 0.081076182 0.0063468078
-0.0035600546 0.081725284 0.0063497918
-0.044312898 0.066398844 0.0063178064
-0.04229331 0.067047998 0.0063208193
-0.040213559 0.068087742 0.0063191801
-0.038921248 0.068688788 0.006318666
-0.037406556 0.069175653 0.006320918
-0.035386939 0.069824748 0.0063239313
-0.033367347 0.070473902 0.0063269436
-0.031570114 0.071237177 0.00632725
-0.029995285 0.072114691 0.0063247904
-0.0097992579 0.078605935 0.0063548284
-0.0082845464 0.079092741 0.0063570808
-0.0067698495 0.079579607 0.0063593322
-0.0050928891 0.079561584 0.0063689724
-0.0030732967 0.08021073 0.0063719852
-0.0010536859 0.080859832 0.006374998
0.00085170328 0.081286572 0.0063802199
0.0031477683 0.081653245 0.0063883811
0.0046624816 0.082140058 0.006390634
-0.051237389 0.0619452 0.0063361283
-0.049722694 0.062432066 0.0063383803
-0.047865346 0.063586049 0.0063339751
-0.045845736 0.064235143 0.0063369879
-0.043826137 0.064884298 0.0063399998
-0.041806526 0.065533392 0.0063429838
-0.039786935 0.066182546 0.0063459957
-0.038272217 0.066669352 0.0063482486
-0.036919776 0.067661047 0.0063431123
-0.035405077 0.068147913 0.0063453643
-0.00056692446 0.079345278 0.0063971616
0.001729159 0.079711899 0.0064053833
0.0036345464 0.080138639 0.0064105457
0.0056541408 0.080787793 0.006413558
0.0076737516 0.081436887 0.0064165713
0.0098556112 0.081581153 0.0064269416
0.011370308 0.082068019 0.0064291935
-0.053052764 0.059505086 0.0063572838
-0.051255528 0.060268365 0.0063575311
-0.049235936 0.060917515 0.0063605434
-0.047438703 0.061680794 0.0063608503
-0.045358974 0.062720597 0.0063591516
-0.043339379 0.063369751 0.0063621639
0.0061409189 0.079273187 0.0064357221
0.0081605129 0.079922341 0.0064387349
0.010342373 0.080066606 0.0064491355
0.011857065 0.080553472 0.006451387
0.013371777 0.081040278 0.0064536398
0.015048738 0.081022255 0.0064632799
-0.057512868 0.05547218 0.0063840011
-0.055655517 0.056626163 0.006379596
-0.054140806 0.057112969 0.0063818484
-0.052626111 0.057599835 0.0063841003
-0.050768767 0.058753818 0.0063797249
0.012343842 0.079038866 0.0064735515
0.014135008 0.07924325 0.0064810123
0.016040396 0.079669997 0.006486204
0.017945785 0.080096737 0.0064914557
0.019736974 0.080301069 0.0064988574
-0.060903057 0.052154493 0.0064075575
-0.059045698 0.053308479 0.0064031524
-0.057248488 0.054071814 0.0064034881
-0.05516874 0.055111557 0.0064017903
0.017032074 0.078317679 0.006509129
0.01882324 0.078522064 0.0065165898
0.020728633 0.078948811 0.0065217819
0.022634014 0.07937555 0.0065270336
-0.062213503 0.049876612 0.0064294748
-0.060416292 0.050639946 0.0064297211
-0.059063841 0.051631641 0.0064245854
0.021720292 0.077596545 0.0065447059
0.023397248 0.077578522 0.0065543461
0.02541686 0.078227624 0.0065573589
0.027093822 0.078209594 0.0065669995
-0.061949126 0.048476245 0.0064489027
-0.060434427 0.048963111 0.0064511541
0.025903618 0.07671307 0.006579523
0.027923236 0.077362165 0.0065825358
-0.063259579 0.046198364 0.0064708199
-0.061462361 0.046961695 0.0064710663
-0.060109917 0.04795339 0.0064659305
0.02673303 0.075865641 0.0065950593
0.028409993 0.075847618 0.0066046994
0.030315382 0.076274358 0.0066099511
0.032106549 0.07647875 0.0066173519
-0.064630166 0.043529835 0.0064973887
-0.062832929 0.044293109 0.006497636
-0.061035719 0.045056444 0.0064979419
0.029401649 0.07449536 0.0066276239
0.031078612 0.074477337 0.006637264
0.032593321 0.074964143 0.0066395164
0.033603124 0.07528872 0.006641008
-0.066000745 0.040861301 0.0065239277
-0.064203523 0.041624576 0.0065242047
-0.062183928 0.04227373 0.0065271873
0.032070287 0.07312502 0.006660189
0.03324233 0.07294476 0.0066690976
0.03475704 0.073431574 0.0066713504
0.036434006 0.073413551 0.0066809906
-0.067936353 0.037639774 0.0065543884
-0.067088805 0.03846918 0.006548522
-0.06557411 0.038956046 0.006550774
-0.063776895 0.03971938 0.0065510795
0.03552027 0.071634546 0.006698723
0.037425663 0.072061293 0.0067039146
0.039607525 0.072205551 0.0067143152
-0.06930694 0.034971241 0.0065809572
-0.067954488 0.035962939 0.0065758214
-0.0664398 0.036449801 0.0065780729
-0.065147467 0.037050791 0.0065776492
0.038417339 0.070708975 0.0067268396
0.040094279 0.070691004 0.0067364788
0.041999672 0.071117751 0.0067417305
-0.070677526 0.032302711 0.006607526
-0.069325082 0.033294406 0.0066023902
-0.067305468 0.0339435 0.0066054035
-0.065953016 0.034935195 0.0066002375
0.041085958 0.069338687 0.0067594042
0.042762924 0.069320664 0.0067690443
0.044277608 0.069807529 0.0067712963
-0.072048105 0.029634183 0.0066340952
-0.070695661 0.030625876 0.0066289594
-0.068676054 0.031274971 0.0066319425
-0.067323603 0.032266665 0.0066268062
0.043754578 0.067968406 0.0067919684
0.045431543 0.067950383 0.0068016089
0.047108501 0.06793236 0.0068112491
-0.073418677 0.026965592 0.0066606645
-0.072066225 0.027957289 0.0066554993
-0.070269018 0.028720619 0.0066558346
-0.068694189 0.029598134 0.0066533755
0.046423193 0.066598125 0.006824533
0.048100162 0.066580102 0.0068341731
0.049777117 0.066562079 0.0068438132
-0.073094167 0.025955876 0.0066754408
-0.071579471 0.026442738 0.0066776928
0.049091831 0.065227784 0.0068570981
0.05060653 0.06571465 0.00685935
-0.074464753 0.023287345 0.0067020096
-0.073112302 0.024279039 0.0066968733
-0.07175985 0.025270732 0.0066917082
0.049416341 0.064218067 0.0068719042
0.051093303 0.064200044 0.0068815439
0.05277025 0.064182073 0.0068911836
-0.074260503 0.021496328 0.0067261783
-0.072968192 0.022097372 0.0067256647
0.051856533 0.062403016 0.0069089164
0.053761926 0.062829755 0.0069141085
-0.07518632 0.018599376 0.0067581306
-0.07383386 0.019591073 0.0067529948
0.052733995 0.060828347 0.0069340207
0.054410953 0.060810324 0.0069436608
0.055925645 0.061297189 0.0069459123
-0.076556899 0.015930843 0.0067846999
-0.075204454 0.016922535 0.0067795636
-0.073689751 0.017409405 0.0067818156
0.055174183 0.059013296 0.0069710626
0.056574669 0.059277751 0.0069754943
0.057584465 0.059602328 0.0069769854
-0.076917678 0.013586832 0.0068127601
-0.076070145 0.014416296 0.0068068635
-0.074777819 0.015017281 0.0068064393
0.05706143 0.057763204 0.0069976579
0.058738396 0.057745181 0.0070072981
-0.076430909 0.012072285 0.0068349242
-0.075421117 0.012396859 0.0068364451
-0.074411318 0.012721436 0.0068379361
0.059387419 0.055725742 0.0070368801
0.060902115 0.056212608 0.0070391321
-0.076286793 0.0098905573 0.0068637454
-0.074772105 0.010377424 0.0068659973
0.060541343 0.053868599 0.0070671928
0.062056035 0.054355461 0.0070694443
-0.075800024 0.0083760107 0.006885909
-0.074285336 0.0088628763 0.0068881609
0.061028097 0.052354049 0.0070893564
0.062542796 0.052840911 0.0070916084
-0.07531327 0.0068614609 0.0069081029
-0.07379856 0.0073482692 0.0069103548
0.063029572 0.051326308 0.0071138022
0.064544268 0.05181317 0.0071160542
-0.076178931 0.0043551624 0.0069354028
-0.074664235 0.0048420276 0.0069376547
0.064183496 0.049469158 0.0071441149
0.065583967 0.049733669 0.0071486053
-0.075812444 0.0020593179 0.0069669597
-0.074520111 0.0026603027 0.0069664763
0.066347219 0.047936589 0.0071759191
-0.075385794 0.00015406091 0.0069938055
0.066996217 0.045917209 0.0072055003
0.068510935 0.046404015 0.0072077527
-0.076089233 -0.0028570734 0.0070284936
-0.074736774 -0.001865374 0.0070233578
0.067645252 0.04389777 0.0072350521
0.069159962 0.04438458 0.0072373049
-0.075602472 -0.0043716216 0.0070506572
-0.074087769 -0.0038847544 0.0070529091
0.068799175 0.042040624 0.0072653648
0.06980896 0.042365201 0.0072668861
-0.074953444 -0.0063910568 0.0070802392
-0.073661119 -0.0057900096 0.0070798146
0.069448195 0.040021189 0.0072949468
0.070848696 0.040285643 0.0072994381
-0.074809343 -0.0085727228 0.00710906
-0.073294617 -0.0080859149 0.0071113124
0.069934957 0.038506642 0.0073171104
0.071611919 0.038488619 0.007326751
-0.074322566 -0.010087329 0.0071312245
-0.072807848 -0.0096004605 0.007133476
0.07209868 0.036974069 0.0073489444
-0.075188242 -0.012593569 0.0071585537
-0.073835798 -0.011601877 0.0071533881
0.072585456 0.035459466 0.007371109
-0.074701488 -0.01410812 0.0071807173
-0.073409155 -0.013507131 0.0071802936
0.073234454 0.033440083 0.0074006901
-0.074334979 -0.016404023 0.0072122747
-0.073042661 -0.015802979 0.0072117904
0.073883489 0.031420648 0.0074302419
-0.073908329 -0.018309278 0.0072390907
-0.072393641 -0.017822415 0.0072413427
0.074532516 0.029401215 0.0074597942
-0.073259309 -0.020328714 0.0072686728
0.075181529 0.027381776 0.0074893758
-0.072610311 -0.022348097 0.0072982241
0.075830564 0.025362343 0.007518928
-0.071961276 -0.02436753 0.0073278062
-0.070284322 -0.024385553 0.0073374463
0.076479569 0.023342961 0.0075485096
-0.071198046 -0.026164554 0.0073551787
-0.069797568 -0.025900103 0.0073596099
0.075613894 0.020836663 0.00757581
0.076623701 0.02116124 0.0075773308
-0.070320591 -0.027739227 0.0073802825
-0.069310777 -0.027414706 0.0073818043
0.076100655 0.019322116 0.0075980034
0.077110462 0.019646691 0.0075994944
-0.069833815 -0.029253829 0.0074024769
-0.068433322 -0.028989378 0.0074069677
0.076587416 0.017807564 0.007620167
0.077597231 0.018132087 0.007621659
-0.067670092 -0.030786403 0.0074342806
0.077236444 0.01578813 0.0076497491
0.078246243 0.016112706 0.0076512401
-0.067021072 -0.032805838 0.0074638329
0.077602953 0.013492226 0.0076813065
0.078895271 0.014093271 0.0076807924
-0.066372059 -0.034825217 0.007493414
0.07802958 0.011587029 0.0077081216
-0.065723039 -0.036844652 0.0075229658
0.077163912 0.0090807276 0.0077354219
0.078456223 0.0096817724 0.0077349972
-0.064959787 -0.038641736 0.007550369
0.077812932 0.0070612924 0.0077650039
0.078822739 0.0073858672 0.007766495
-0.063920088 -0.040721238 0.0075828605
-0.062910289 -0.040396661 0.007584352
0.078461938 0.0050419122 0.0077945553
0.079471752 0.005366432 0.0077960771
-0.063433327 -0.042235788 0.0076050246
-0.061870568 -0.042476218 0.0076169334
0.078828447 0.0027460083 0.0078261122
0.079958521 0.003851884 0.0078182407
-0.061269604 -0.043768354 0.0076368582
0.07909283 0.0013456405 0.0078455405
-0.060277924 -0.045120671 0.0076597831
-0.059268128 -0.044796094 0.0076612742
0.078227162 -0.0011606596 0.0078728702
0.079357229 -5.478027e-05 0.0078650583
-0.05979117 -0.046635222 0.0076819467
-0.058228429 -0.046875596 0.0076938551
0.07843139 -0.0029516779 0.0078970399
0.079723708 -0.0023506328 0.0078965556
-0.057465188 -0.04867268 0.0077211689
-0.055788219 -0.048690703 0.007730809
0.078858048 -0.004856931 0.0079238554
-0.056701958 -0.050469708 0.0077485414
-0.055301458 -0.050205249 0.0077529727
0.077992357 -0.0073631741 0.0079511851
0.079284675 -0.0067621274 0.0079507306
-0.055824496 -0.052044373 0.0077736452
-0.05465243 -0.052224685 0.0077825547
-0.053642642 -0.051900111 0.0077840458
0.077631578 -0.0097071296 0.0079792449
0.078641385 -0.0093826111 0.0079807369
0.079488933 -0.0085532023 0.0079748407
-0.052488722 -0.053757258 0.0078143589
-0.050811749 -0.053775281 0.007823999
0.077775694 -0.011888853 0.0080080666
0.079128146 -0.010897158 0.0080029005
-0.051497061 -0.055109516 0.0078372825
-0.049820095 -0.055127539 0.0078469226
0.076910019 -0.014395153 0.0080353674
0.078202337 -0.013794108 0.0080349427
-0.049333338 -0.056642089 0.007869117
-0.04781862 -0.056155279 0.0078713689
0.076891892 -0.016071992 0.0080567999
0.07840658 -0.015585128 0.0080590518
-0.048341658 -0.057994407 0.0078920415
-0.046941165 -0.057729952 0.0078965323
0.076026194 -0.018578233 0.0080840997
0.077378646 -0.017586539 0.0080789635
-0.046177939 -0.059526976 0.0079238452
-0.044500981 -0.059545003 0.0079334853
0.074655615 -0.021246763 0.0081106685
0.076008052 -0.020255068 0.0081055323
0.077360511 -0.019263377 0.008100397
-0.045186259 -0.060879294 0.0079467706
-0.043509312 -0.060897261 0.0079564098
-0.041832361 -0.060915284 0.0079660797
0.074859872 -0.023037838 0.0081348382
0.076434702 -0.022160323 0.0081324084
-0.04251764 -0.062249579 0.0079793343
-0.040840685 -0.062267601 0.0079890052
-0.039163724 -0.062285624 0.0079986453
0.073489286 -0.025706369 0.008161407
0.075064108 -0.024828859 0.0081589771
-0.039686758 -0.064124748 0.0080193169
-0.038172062 -0.063637882 0.0080215689
-0.036495108 -0.063655905 0.008031209
0.0721187 -0.028374901 0.0081879757
0.073693529 -0.027497388 0.0081855459
-0.037685305 -0.065152429 0.0080437325
-0.035503447 -0.065008171 0.0080541335
-0.033826485 -0.065026186 0.0080637736
0.070748135 -0.031043489 0.0082145156
0.072322965 -0.030165974 0.0082120858
-0.034511775 -0.066360489 0.0080770589
-0.033339731 -0.06654074 0.0080859372
-0.031939238 -0.06627629 0.0080904588
-0.030148055 -0.066071957 0.0080978302
0.069377542 -0.033712018 0.0082410844
0.070952378 -0.032834508 0.0082386546
-0.030833349 -0.067406192 0.0081111146
-0.029156396 -0.067424215 0.0081207845
-0.027479433 -0.067442238 0.0081304247
0.066937029 -0.037095778 0.0082707843
0.068289474 -0.036104087 0.008265648
0.069581792 -0.035503037 0.0082652234
-0.028164715 -0.068776526 0.008143709
-0.026650021 -0.068289667 0.008145961
0.065746821 -0.038592305 0.0082833376
0.067261539 -0.038105495 0.0082855895
0.068776228 -0.03761863 0.0082878415
-0.02604904 -0.069581859 0.0081659462
-0.024257874 -0.069377474 0.0081733763
0.063931473 -0.041032474 0.0083044935
0.065728702 -0.040269196 0.0083047412
0.067586049 -0.039115213 0.0083003659
-0.02365689 -0.070669666 0.008193301
-0.021475036 -0.070525408 0.008203702
-0.019293174 -0.070381135 0.0082141031
0.060481161 -0.044740807 0.0083327023
0.062338505 -0.043586824 0.008328327
0.064135715 -0.04282349 0.0083286334
0.065710567 -0.041946035 0.0083261747
-0.020483354 -0.071877718 0.0082266275
-0.018692192 -0.071673334 0.0082340874
-0.01690102 -0.071468942 0.0082415184
-0.015109839 -0.07126461 0.0082489196
0.059170712 -0.047018688 0.0083546191
0.060967941 -0.04625541 0.0083548669
0.062825263 -0.045101374 0.0083504906
-0.015795143 -0.072598852 0.008262204
-0.01411818 -0.072616875 0.0082718441
-0.012603465 -0.072130069 0.008274097
-0.010926503 -0.072148085 0.0082837371
0.056225289 -0.050564736 0.0083835879
0.05757774 -0.049573038 0.0083784228
0.059374951 -0.048809707 0.0083787581
-0.012116707 -0.073644616 0.0082962606
-0.010602009 -0.07315775 0.0082985125
-0.0084201358 -0.073013544 0.0083089136
-0.0062382985 -0.072869219 0.0083193136
0.053844903 -0.053557843 0.0084086359
0.054854725 -0.053233322 0.0084101278
0.056207169 -0.052241627 0.0084049925
0.057559602 -0.051249877 0.0083998553
-0.0059137801 -0.073878936 0.00833409
-0.0037319241 -0.073734671 0.0083444901
-0.0018265349 -0.073307931 0.008349712
0.00046954863 -0.072941311 0.0083578741
0.0024891391 -0.072292157 0.0083608869
0.046415523 -0.058173776 0.0084261969
0.047930218 -0.05768691 0.0084284488
0.050009944 -0.056647107 0.0084268097
0.051807176 -0.055883832 0.0084270565
0.053826768 -0.055234678 0.0084300693
0.05517922 -0.054242983 0.0084249331
0.056189034 -0.053918466 0.008426425
-0.0012255536 -0.074600123 0.0083696665
0.0010705319 -0.074233502 0.0083778584
0.0029759228 -0.073806763 0.0083830506
0.0049955132 -0.073157609 0.0083860634
0.0065102288 -0.072670802 0.0083883163
0.0081871655 -0.072688773 0.0083979554
0.0097018816 -0.072201967 0.0084002074
0.040500831 -0.062302843 0.0084460098
0.042520426 -0.061653689 0.0084489919
0.044377789 -0.060499765 0.0084446175
0.046397384 -0.059850611 0.0084476303
0.048194595 -0.059087276 0.0084479358
0.050274342 -0.058047533 0.008446238
0.051789038 -0.057560667 0.0084484899
0.0069969846 -0.074185356 0.0084104799
0.008511683 -0.073698491 0.0084127309
0.01069354 -0.073554225 0.0084231319
0.012713138 -0.072905071 0.0084261447
0.01461854 -0.072478384 0.0084313666
0.016914604 -0.072111711 0.0084395278
0.018934216 -0.071462616 0.0084425416
0.020953812 -0.070813462 0.0084455237
0.026507733 -0.069028407 0.0084538013
0.028022423 -0.068541542 0.0084560532
0.030042037 -0.067892447 0.0084590372
0.032061629 -0.067243293 0.0084620491
0.034081243 -0.066594198 0.0084650619
0.036100838 -0.065945044 0.0084680449
0.037958182 -0.064791061 0.0084636696
0.039472897 -0.064304255 0.0084659215
0.040987592 -0.063817389 0.0084681734
0.042844936 -0.062663406 0.0084637981
0.04435965 -0.0621766 0.008466051
0.015219524 -0.073770583 0.0084513221
0.017239122 -0.073121428 0.0084543042
0.019258713 -0.072472274 0.008457317
0.021278324 -0.07182318 0.0084603298
0.023297936 -0.071174085 0.0084633129
0.024812633 -0.07068722 0.0084655648
0.026327327 -0.070200354 0.0084678167
0.028346941 -0.069551259 0.0084708296
0.030366551 -0.068902165 0.0084738424
0.032386143 -0.068253011 0.0084768254
0.034405738 -0.067603856 0.0084798373
0.036425348 -0.066954762 0.0084828502
0.02008814 -0.073319763 0.0084728543
0.021602834 -0.072832897 0.0084751053
0.023622433 -0.072183743 0.0084781181
0.025137143 -0.071696937 0.00848037
0.026651857 -0.071210131 0.0084826229
0.028166553 -0.070723265 0.0084848749
-0.025352798 0.074794896 0.0053163739
-0.023833651 0.075283162 0.0053186407
-0.022314508 0.075771421 0.0053208768
-0.02079536 0.076259688 0.0053231432
-0.019276213 0.076747946 0.0053254096
-0.030778445 0.07081645 0.0053369962
-0.029198997 0.07169655 0.0053345403
-0.027396517 0.072462112 0.0053348569
-0.025370976 0.073113091 0.0053378595
-0.023345452 0.07376413 0.0053408607
-0.021826308 0.074252389 0.0053431271
-0.020307161 0.074740656 0.005345393
-0.018281639 0.075391687 0.0053483946
-0.012205072 0.077344798 0.0053574289
-0.01029408 0.077772751 0.0053626746
-0.0079912841 0.078140505 0.0053708684
-0.0064721392 0.078628771 0.0053731347
-0.037216865 0.066512518 0.0053560873
-0.036204092 0.066838004 0.0053576184
-0.034624644 0.067718104 0.0053551616
-0.032822162 0.068483666 0.0053554494
-0.0075030839 0.076621473 0.0053931181
-0.0059839394 0.077109739 0.0053953547
-0.0044647912 0.077597998 0.0053976211
-0.0024392698 0.078249037 0.0054006223
-0.00025102583 0.078393765 0.0054110601
0.0012681206 0.078882031 0.0054133264
-0.046693571 0.061232056 0.0053707054
-0.045174431 0.061720319 0.0053729415
-0.043148905 0.062371355 0.0053759729
-0.041286103 0.063528694 0.0053715687
-0.039260585 0.064179733 0.0053745694
-0.037235055 0.064830773 0.0053775711
0.0042882203 0.078176804 0.0054393127
0.006476481 0.078321479 0.0054497505
0.0085020056 0.078972518 0.0054527521
-0.050600071 0.057741873 0.0053935638
-0.048737291 0.058899272 0.0053891581
-0.046711769 0.059550308 0.0053921891
0.0089902058 0.077453487 0.0054750023
0.011015729 0.078104518 0.0054780035
0.012697594 0.07808648 0.0054876758
0.01371037 0.078411967 0.0054891771
-0.056532111 0.053600714 0.0054134196
-0.05501296 0.054088976 0.0054156859
-0.053150181 0.055246376 0.0054112803
-0.051631037 0.055734638 0.0054135467
0.013185798 0.076567449 0.005509926
0.014704943 0.077055708 0.0055121919
0.016615912 0.077483721 0.0055174073
0.018412352 0.077688649 0.0055248672
-0.058352794 0.051153399 0.0054346165
-0.056550305 0.051918965 0.0054349331
-0.054524779 0.052570004 0.0054379348
0.019406909 0.076332442 0.0055478513
0.021317905 0.076760396 0.005553097
-0.059606772 0.049260635 0.005451886
-0.058087632 0.049748898 0.0054541519
-0.056062106 0.050399937 0.0054571535
0.021920634 0.07546445 0.0055731023
0.023946157 0.076115489 0.0055761337
-0.059401918 0.047464363 0.0054760841
-0.057599444 0.048229925 0.0054764012
0.024434356 0.074596457 0.0055983542
0.026345329 0.075024463 0.0056035984
-0.060330451 0.044558927 0.0055081965
-0.058974039 0.045553554 0.0055030258
0.027110798 0.073222153 0.0056310119
0.02902179 0.073650107 0.0056362571
-0.060348649 0.042877179 0.0055296803
0.029787267 0.071847796 0.0056636995
0.031306412 0.072336063 0.005665936
0.032481905 0.072155245 0.005674873
-0.063079655 0.039206181 0.0055614761
-0.061723243 0.040200807 0.0055563054
0.031957328 0.070310719 0.0056955917
0.033476479 0.070798986 0.0056978585
0.035158344 0.07078094 0.0057075303
-0.063887581 0.037084416 0.0055841729
-0.062591463 0.037687209 0.0055836951
0.036152914 0.069424681 0.0057305158
0.038063888 0.069852695 0.0057357606
-0.065262184 0.03440804 0.0056107976
-0.063459679 0.03517355 0.0056110858
0.038829364 0.068050385 0.0057632029
0.040740337 0.068478391 0.0057684183
-0.066636778 0.031731669 0.005637452
-0.064834282 0.032497175 0.0056377403
0.041505806 0.06667608 0.0057958607
0.043416802 0.067104034 0.0058010765
-0.069590837 0.028175199 0.0056665335
-0.068011381 0.029055299 0.0056641065
-0.066208877 0.029820807 0.0056643952
0.044182274 0.065301724 0.0058285194
0.04609324 0.06572973 0.0058337636
-0.069771744 0.026999759 0.0056806114
-0.067746215 0.027650796 0.005683613
-0.065720692 0.028301831 0.0056866147
0.046695996 0.064433731 0.0058537703
0.048215121 0.06492205 0.0058560362
-0.071086049 0.024715219 0.0057025431
-0.06928356 0.025480784 0.0057028309
-0.067308687 0.026107902 0.0054558408
0.047184177 0.062914751 0.0058760196
0.049095146 0.063342765 0.005881235
-0.072177313 0.022316149 0.0057272194
-0.070658155 0.022804415 0.0057294853
-0.068684287 0.023429569 0.0054825097
0.049860623 0.061540455 0.0059086769
0.051542506 0.061522353 0.0059183501
-0.072032757 0.02012804 0.00575611
-0.070007242 0.020779073 0.0057591414
0.050511554 0.059515059 0.0059383335
0.052030716 0.060003325 0.0059405998
0.053206198 0.059822507 0.0059495075
-0.072900973 0.017614381 0.0057835011
-0.071381837 0.018102705 0.0057857661
0.052681636 0.057977989 0.0059702261
0.054086223 0.058243226 0.0059747063
-0.073546156 0.014986253 0.0058136345
-0.072250046 0.015589046 0.0058131567
-0.070436493 0.016048921 0.0056174137
0.0548517 0.056440912 0.0060021486
0.056762662 0.056868922 0.0060073938
-0.073118269 0.013075448 0.0058405767
-0.071599126 0.013563707 0.0058428128
0.055502616 0.054415576 0.0060318047
0.057528138 0.055066612 0.0060348059
-0.073986501 0.010561847 0.0058679665
-0.072467349 0.011050108 0.0058702026
-0.070547998 0.011632952 0.0053734323
0.058179069 0.053041276 0.0060644625
0.059698205 0.053529538 0.0060667284
-0.073498301 0.0090428125 0.0058901864
-0.07197915 0.0095310789 0.0058924528
-0.070059091 0.010111706 0.0053957095
0.058667261 0.051522244 0.0060867118
0.060186412 0.052010506 0.0060889781
-0.073010117 0.0075238394 0.0059124357
-0.071490958 0.0080121066 0.0059147021
-0.069623195 0.0085535971 0.0051681162
0.061180968 0.050654307 0.0061119627
-0.072865576 0.0053357277 0.0059413267
-0.07089331 0.0059481277 0.0056945034
0.061831906 0.048628915 0.0061416193
0.063351057 0.049117178 0.0061438559
-0.073733799 0.0028221291 0.0059687165
-0.072214648 0.003310394 0.0059709828
-0.07040222 0.0038019621 0.0049747368
0.064508349 0.047254611 0.006174277
-0.07358925 0.00063402089 0.0059976373
-0.071671553 0.0012016452 0.0055010454
0.065159276 0.045229275 0.0062039332
-0.07293833 -0.0013913165 0.0060272934
0.065810196 0.043203939 0.0062335893
-0.072287388 -0.0034167105 0.0060569206
0.066461124 0.041178603 0.0062632449
0.067980267 0.041666862 0.0062654819
-0.072992891 -0.0064366157 0.006091746
-0.071636461 -0.005442048 0.0060865767
0.067112058 0.039153207 0.0062928721
0.068631187 0.039641529 0.0062951376
-0.072667427 -0.0074492833 0.0061065592
-0.071148284 -0.0069610202 0.006108826
0.067600235 0.037634235 0.0063151214
0.069119386 0.038122497 0.0063173873
-0.072179228 -0.0089683142 0.0061288094
-0.070660084 -0.0084800525 0.0061310753
0.068135992 0.036098365 0.0060878275
0.070113964 0.036766239 0.0063403728
-0.072034679 -0.011156426 0.0061577
-0.070061833 -0.010556065 0.0059110369
0.070764884 0.034740899 0.0063700285
-0.07274016 -0.014176385 0.0061925268
-0.071383767 -0.013181763 0.0061873561
-0.069462828 -0.012634346 0.0056910561
0.071415804 0.032715563 0.0063996846
-0.07225199 -0.015695361 0.0062147463
-0.070732839 -0.015207097 0.0062170122
0.072066732 0.030690229 0.0064293407
-0.071601063 -0.017720697 0.0062444024
-0.070081919 -0.017232437 0.0062466683
0.072717659 0.028664893 0.0064589968
-0.071456522 -0.019908808 0.0062732929
-0.069430992 -0.019257771 0.0062763244
-0.067456223 -0.018663371 0.0060297363
0.073368594 0.026639499 0.0064886538
-0.070805602 -0.021934146 0.006302949
-0.068780065 -0.021283166 0.0063059814
-0.06690634 -0.020805901 0.0055602556
0.072196633 0.023862157 0.005517595
0.074019507 0.024614159 0.0065182801
-0.070040122 -0.023736455 0.0063303914
-0.06812913 -0.023308503 0.0063356375
-0.066467993 -0.022386914 0.0053330078
-0.06443654 -0.021733996 0.0053360281
0.070654802 0.021685781 0.0055368799
0.072895505 0.022090551 0.0058776159
0.074670441 0.022588825 0.0065479362
-0.069160096 -0.025315741 0.00635562
-0.067640953 -0.024827475 0.0063578566
-0.065978363 -0.023910372 0.0053553134
-0.063946918 -0.023257451 0.0053583337
0.071144409 0.020162379 0.0055591846
0.072991833 0.020628558 0.0058969203
0.074652232 0.020907076 0.00656942
-0.068671897 -0.026834769 0.0063778404
-0.067152761 -0.02634651 0.0063801063
-0.065325536 -0.025941666 0.005385044
-0.063801952 -0.025451945 0.0053873239
0.071797244 0.018131085 0.0055889152
0.073724255 0.01884165 0.0060906527
0.075140439 0.019388044 0.0065916702
-0.068183698 -0.028353801 0.0064000902
-0.066501833 -0.028371844 0.0064097624
-0.064672716 -0.027972903 0.0054147742
-0.063149109 -0.027483242 0.0054170545
0.072450079 0.01609979 0.0056186765
0.074376129 0.016813364 0.0061203758
0.075791374 0.017362708 0.0066213263
-0.065850906 -0.030397182 0.0064394185
-0.064019881 -0.030004198 0.0054445351
-0.062496293 -0.029514479 0.0054467851
0.071742512 0.013071053 0.0056535816
0.073102906 0.014068553 0.0056484062
0.075027995 0.014785076 0.0061500687
0.076442286 0.015337371 0.0066509824
-0.065199986 -0.032422516 0.0064690746
-0.063367054 -0.032035433 0.0054742657
-0.061843459 -0.031545773 0.0054765455
0.072232135 0.011547594 0.0056758868
0.073755719 0.012037315 0.0056781368
0.075574063 0.012823773 0.0066783722
0.076930486 0.01381834 0.0066732317
-0.064549051 -0.034447912 0.0064987019
-0.062714227 -0.034066729 0.0055039963
-0.061190642 -0.033577014 0.0055062762
0.072377101 0.0093530994 0.005704877
0.074355796 0.010041598 0.0059571816
0.076224983 0.010798434 0.0067080283
-0.063898131 -0.036473248 0.006528358
-0.062224593 -0.035590187 0.0055263015
-0.060701013 -0.035100471 0.0055285818
0.072866723 0.0078296429 0.0057271826
0.075034611 0.0082963258 0.0064001
0.076369531 0.0086103259 0.0067369193
-0.063247196 -0.038498584 0.0065580141
-0.061701041 -0.03739424 0.0057524107
-0.060211394 -0.036623925 0.0055508874
0.073356345 0.0063061854 0.0057494882
0.075443812 0.0065277014 0.0062584062
0.077020444 0.0065849856 0.0067665754
-0.062252626 -0.039854843 0.0065810289
-0.060796149 -0.039164219 0.0059135617
-0.059165601 -0.038715605 0.0055836057
0.074009173 0.0042749494 0.0057792184
0.075853802 0.0047565801 0.0061167143
0.077508651 0.0050659566 0.0067888252
-0.061764445 -0.041373815 0.0066032484
