# .PCD v0.7 - Point Cloud Data file format
VERSION 0.7
FIELDS x y z
SIZE 4 4 4
TYPE F F F
COUNT 1 1 1
WIDTH 1268
HEIGHT 1
VIEWPOINT 0 0 0 1 0 0 0
POINTS 1268
DATA ascii
-0.041899405 -0.085402139 0.010621134
-0.040107559 -0.084955111 0.010631328
-0.038526282 -0.084112786 0.010634582
-0.036767036 -0.083120584 0.010437476
-0.035189394 -0.082581758 0.010311273
0.092491232 -0.014725756 0.0099098962
0.094008677 -0.013755333 0.01031098
-0.039080609 -0.08593037 0.010652963
-0.037684105 -0.085693896 0.010662373
-0.036102783 -0.084851615 0.010665627
-0.034583095 -0.084211215 0.010670923
0.091749571 -0.017157627 0.009934498
0.093133673 -0.01625056 0.0099351788
0.094809748 -0.015156791 0.010769481
-0.036636505 -0.087470114 0.01069448
-0.035050076 -0.086827978 0.010700358
-0.033073455 -0.085775092 0.010704425
0.0914132 -0.01971305 0.0099642873
0.092392005 -0.018682439 0.0099597806
0.094006836 -0.018205427 0.01046803
-0.035183299 -0.089436181 0.010732621
-0.033997346 -0.088804401 0.01073506
-0.032020725 -0.087751515 0.010739157
0.090300694 -0.023360865 0.010001175
0.091616906 -0.021768624 0.0099924793
0.093387507 -0.020654807 0.010160601
0.094877794 -0.020155048 0.011000896
-0.034534495 -0.091289446 0.010762183
-0.033155184 -0.090385519 0.010762852
-0.031178551 -0.089332625 0.010766919
-0.024107104 -0.085831299 0.0097848
0.090740465 -0.024823904 0.010023865
0.092460833 -0.023693211 0.010191335
0.094138682 -0.022578493 0.011025405
0.095719978 -0.02173616 0.011028658
-0.02841901 -0.090164989 0.0098020351
-0.02683226 -0.089319699 0.0098053087
-0.024848768 -0.088263169 0.0098094027
-0.022865308 -0.087206587 0.009813495
-0.021340325 -0.086564004 0.0098188175
0.089998804 -0.027255772 0.010048468
0.091382906 -0.026348712 0.010049148
0.093124054 -0.025239566 0.010717173
0.094980866 -0.024159607 0.011053165
-0.027325351 -0.091940254 0.010501312
-0.025929691 -0.091124326 0.010036485
-0.024003649 -0.089849807 0.0098372791
-0.022020198 -0.088793226 0.0098413723
-0.020433407 -0.087947987 0.0098446468
-0.019426355 -0.086624511 0.010836738
0.089257136 -0.029687647 0.010073069
0.090641238 -0.028780583 0.01007375
0.092594847 -0.028060772 0.010748612
0.094452307 -0.026978355 0.011084644
0.096033596 -0.026136028 0.011087898
-0.024729744 -0.092754073 0.010668149
-0.023083823 -0.09166947 0.010243824
-0.02106829 -0.090935953 0.010020199
-0.019377032 -0.089931242 0.0098794848
-0.017764378 -0.090090647 0.0098958649
0.088532679 -0.032789275 0.010106408
0.090110853 -0.031609129 0.010105314
0.09151873 -0.030713798 0.010606445
0.093528412 -0.030007666 0.01111528
0.095294483 -0.028559467 0.011112407
-0.02383084 -0.09455248 0.010899256
-0.022249553 -0.093710147 0.010902509
-0.020277793 -0.092709102 0.010740551
-0.018320628 -0.091914549 0.0099143237
-0.016795682 -0.091271922 0.0099196462
0.086221464 -0.036736127 0.010136502
0.087402925 -0.035767287 0.010134559
0.089183725 -0.034648929 0.010136059
0.090900786 -0.033510923 0.0108868
0.092394002 -0.032641716 0.011138976
0.093773313 -0.031737782 0.011139643
-0.021345774 -0.095089324 0.010928258
-0.019430758 -0.094238371 0.010934368
-0.017459333 -0.093263872 0.010689409
-0.015888762 -0.092655905 0.0099454755
-0.014363773 -0.092013322 0.009950798
0.085479766 -0.039167952 0.010161104
0.086458594 -0.038137391 0.010156568
0.08825592 -0.037220597 0.010360808
0.089933679 -0.036001507 0.010760145
0.091654882 -0.035065163 0.011163513
0.093034193 -0.034161232 0.011164181
-0.018131681 -0.09540695 0.010960929
-0.016611962 -0.094766602 0.010966226
-0.015033782 -0.09400329 0.01072048
-0.013454838 -0.093317918 0.010225642
-0.011589831 -0.092504546 0.009981784
-0.0096753528 -0.091892101 0.0099909557
0.084332801 -0.041476268 0.010180489
0.085716896 -0.040569212 0.01018117
0.087446108 -0.039624743 0.010584469
0.089124091 -0.038403433 0.010983814
0.090915762 -0.037488613 0.011188021
0.09229511 -0.036584731 0.011188691
-0.015585016 -0.095741861 0.01098789
-0.013983125 -0.095700443 0.011001585
-0.012396662 -0.095058359 0.011007464
-0.010570196 -0.094117351 0.010511599
-0.0087575102 -0.093171597 0.010215548
-0.0072434512 -0.092633501 0.010022108
0.083295748 -0.044150364 0.010205584
0.08511401 -0.043167982 0.010409156
0.086490043 -0.04243603 0.011045435
0.088259131 -0.041314088 0.011213458
0.089974709 -0.039850507 0.011209945
0.091152065 -0.038885035 0.011208029
-0.01231935 -0.098061807 0.011046696
-0.011343934 -0.097034782 0.011042196
-0.0097626476 -0.096192449 0.011045449
-0.0078405179 -0.094909765 0.010671045
-0.0060047414 -0.093955278 0.010216764
-0.0042036157 -0.093560174 0.010061039
-0.0028022407 -0.093322903 0.010070456
0.079710342 -0.049369991 0.010240646
0.080689169 -0.048339427 0.010236141
0.082064666 -0.047097519 0.010232424
0.084011018 -0.046023969 0.010347103
0.085766792 -0.04506598 0.011039414
0.087486692 -0.044389557 0.011246039
0.088672675 -0.043757834 0.011248479
-0.010440154 -0.098413959 0.011067916
-0.0089204786 -0.097773567 0.011073241
-0.0069438517 -0.096720673 0.011077307
-0.0049672397 -0.095667794 0.011081374
-0.0033652217 -0.095065922 0.010337831
-0.0013750342 -0.094090223 0.010093008
0.0008197354 -0.093430363 0.010104064
0.0020098211 -0.092796423 0.01010652
0.078563362 -0.051678315 0.010260062
0.079947472 -0.050771251 0.010260742
0.081534252 -0.049926013 0.010264018
0.083352655 -0.048789084 0.010765661
0.085166305 -0.047655333 0.011267293
0.086747579 -0.046813004 0.011270547
0.088328868 -0.045970671 0.01127383
-0.00412506 -0.097248904 0.011109166
-0.0025437705 -0.096406572 0.011112419
-0.00054211728 -0.095568433 0.010452767
0.0014535398 -0.09462028 0.010124949
0.0030403265 -0.093775034 0.010128223
0.0046271132 -0.092929803 0.010131498
0.0064251572 -0.092481181 0.010141764
0.0076152426 -0.091847241 0.01014419
0.07545013 -0.055712916 0.01028412
0.077028282 -0.054532781 0.010283027
0.07880912 -0.053414475 0.010284526
0.0807124 -0.052314412 0.010537352
0.082135752 -0.051384702 0.01103818
0.08403185 -0.05028934 0.011290988
0.086008482 -0.049236447 0.011295085
0.087589763 -0.048394118 0.011298338
9.0244088e-05 -0.097540662 0.011150405
0.0020668637 -0.096487775 0.011154501
0.0040607154 -0.095541745 0.010826748
0.005507871 -0.094731852 0.010362471
0.0070589865 -0.093671151 0.010162649
0.0090424772 -0.092614613 0.010166743
0.010840521 -0.092165999 0.010176979
0.073121674 -0.058990028 0.010305448
0.074497171 -0.05774812 0.01030176
0.076228864 -0.057060104 0.010508345
0.078037746 -0.056277387 0.010939429
0.079805121 -0.055032581 0.011028504
0.081526674 -0.054160975 0.01131837
0.083107956 -0.053318646 0.011321653
0.08508458 -0.052265756 0.011325721
0.0050961911 -0.097411253 0.0111933
0.0066425274 -0.096354149 0.01099347
0.0080815479 -0.095491856 0.010695178
0.01009885 -0.094597876 0.010201581
0.012082341 -0.093541339 0.010205675
0.013818579 -0.09329538 0.010217958
0.067645513 -0.06496226 0.01033336
0.068835594 -0.064328313 0.010335816
0.070211098 -0.063086405 0.010332099
0.072135292 -0.061679546 0.010331184
0.073917128 -0.060542654 0.01049911
0.075402603 -0.059631206 0.010834016
0.076900139 -0.058929272 0.011138357
0.079021491 -0.058032613 0.011345752
0.080796167 -0.056918181 0.011347264
0.082368873 -0.055742145 0.011346162
0.083950162 -0.054899812 0.011349415
0.0091009634 -0.097307757 0.011227598
0.011142617 -0.096526273 0.010402276
0.013138713 -0.095524594 0.010240513
0.014725501 -0.094679363 0.010243787
0.016312288 -0.093834125 0.010247062
0.018203039 -0.093081519 0.010254242
0.020490497 -0.092117622 0.01026221
0.022077285 -0.091272384 0.010265484
0.023664072 -0.090427145 0.010268759
0.02525083 -0.089581862 0.010272034
0.02723432 -0.088525325 0.010276128
0.028821107 -0.087680086 0.010279402
0.060953401 -0.070563786 0.010345683
0.062540188 -0.069718547 0.010348957
0.064118341 -0.068538412 0.010347864
0.065899178 -0.067420103 0.010349334
0.067882635 -0.066363521 0.010353426
0.069469422 -0.065518282 0.010356702
0.07098446 -0.064618915 0.010608648
0.072844446 -0.063474752 0.011027274
0.074724473 -0.062351279 0.01136294
0.076305784 -0.061508998 0.011366194
0.077887073 -0.060666673 0.011369477
0.078862496 -0.059639644 0.011364977
0.017157378 -0.095420711 0.010274938
0.019140868 -0.094364174 0.010279032
0.021124328 -0.093307592 0.010283125
0.022711117 -0.092462353 0.0102864
0.0242979 -0.091617115 0.010289675
0.02588466 -0.090771824 0.010292948
0.027868152 -0.089715287 0.010297042
0.02985161 -0.088658705 0.010301135
0.031438395 -0.087813467 0.01030441
0.033025187 -0.086968228 0.010307685
0.035008676 -0.085911699 0.010311749
0.03693033 -0.085057765 0.010317889
0.038790181 -0.084406495 0.010326107
0.040376969 -0.083561257 0.010329352
0.041963752 -0.082716018 0.010332627
0.043947216 -0.081659436 0.010336719
0.045930706 -0.080602899 0.010340814
0.049104251 -0.07891237 0.010347362
0.051087741 -0.07785584 0.010351456
0.053071205 -0.076799251 0.010355549
0.054657988 -0.07595402 0.010358823
0.056244776 -0.075108781 0.010362098
0.058016978 -0.073655576 0.01035923
0.060000442 -0.072598986 0.010363323
0.061587229 -0.071753748 0.010366567
0.063174017 -0.070908509 0.010369843
0.064760797 -0.070063278 0.010373117
0.066653572 -0.068929523 0.010708767
0.068588942 -0.067835838 0.010878657
0.07003215 -0.066880547 0.011379315
0.071613431 -0.066038221 0.011382569
0.073590055 -0.064985335 0.011386635
0.03587205 -0.087773651 0.010593378
0.037837252 -0.086441748 0.010343718
0.03942401 -0.085596457 0.010346992
0.041010797 -0.084751219 0.010350267
0.042597584 -0.083905987 0.010353542
0.044581074 -0.08284945 0.010357635
0.046564534 -0.081792869 0.010361728
0.048151322 -0.08094763 0.010365003
0.049738079 -0.080102339 0.010368277
0.051893607 -0.079117097 0.010517661
0.053840637 -0.07829722 0.010715003
0.055425569 -0.07745292 0.01071824
0.057010531 -0.076608665 0.010721538
0.058937285 -0.075497024 0.010946627
0.060889453 -0.074414566 0.011061267
0.062429957 -0.073530644 0.01123031
0.063969061 -0.072647408 0.011399347
0.065945685 -0.071594521 0.011403413
0.067922309 -0.070541635 0.011407511
0.043860145 -0.085612476 0.011136762
0.045689996 -0.084435023 0.010959333
0.047484532 -0.083587222 0.011059683
0.049067643 -0.082743905 0.011062914
0.050650753 -0.081900589 0.011066204
0.05256477 -0.080975644 0.011154683
0.054743409 -0.080098927 0.011412872
0.056324694 -0.079256594 0.011416126
0.057906006 -0.078414321 0.01141938
0.059579682 -0.077269055 0.011419584
0.061648663 -0.075913183 0.011420602
0.062834643 -0.075281464 0.011423042
0.055375051 -0.081284791 0.011433695
-0.048790373 0.063750736 0.0066460483
-0.047596183 0.064386897 0.00664852
-0.045605823 0.065447077 0.0066526104
-0.043615494 0.06650731 0.0066567296
-0.042023234 0.067355506 0.0066599958
-0.040439602 0.068539687 0.0066589112
-0.038838688 0.069051847 0.0066665872
-0.036848329 0.070112027 0.006670678
-0.034858 0.07117226 0.0066747973
-0.03326574 0.072020449 0.006678063
-0.051126886 0.060462292 0.0066674482
-0.049941324 0.061434437 0.0066655101
-0.048552427 0.062344633 0.006666203
-0.046960142 0.063192777 0.006669499
-0.044969808 0.06425301 0.0066736187
-0.042979479 0.065313242 0.0066777086
-0.041387193 0.066161387 0.0066809747
-0.039794933 0.067009583 0.0066842707
-0.038202647 0.067857727 0.0066875368
-0.036212314 0.06891796 0.0066916863
-0.034221984 0.069978185 0.0066957464
-0.032629699 0.070826329 0.0066990424
-0.031037437 0.071674526 0.0067023383
-0.029047107 0.072734758 0.0067064576
-0.027118785 0.073591612 0.0067126006
-0.025252474 0.074245095 0.006720827
-0.023660216 0.075093292 0.0067240926
-0.022067929 0.075941436 0.0067273891
-0.020077599 0.077001669 0.0067314785
-0.01808727 0.078061894 0.0067355982
-0.01649498 0.078910038 0.0067388946
-0.059036352 0.054205235 0.0066773426
-0.057842139 0.054841343 0.0066798148
-0.056249879 0.05568954 0.0066831103
-0.054657593 0.056537684 0.0066863769
-0.053277347 0.05778392 0.0066826893
-0.051287018 0.058844149 0.0066868085
-0.049296655 0.059904329 0.0066908989
-0.028199077 0.071142651 0.0067344196
-0.026208717 0.072202832 0.00673851
-0.024616459 0.073051028 0.0067418059
-0.023024173 0.073899172 0.0067450721
-0.021431914 0.074747369 0.006748368
-0.019441582 0.075807601 0.0067524873
-0.017451225 0.076867774 0.0067565776
-0.015858963 0.077715971 0.0067598438
-0.014328713 0.078360796 0.0067651924
-0.012860474 0.078802235 0.0067725945
-0.066521786 0.047152098 0.0067012329
-0.065327607 0.047788259 0.0067037046
-0.063743964 0.048972443 0.0067026201
-0.062355071 0.049882639 0.0067032836
-0.060974799 0.051128823 0.0066995965
-0.058984466 0.052189056 0.0067037158
-0.056994107 0.053249236 0.0067078061
-0.05540185 0.054097429 0.0067111021
-0.0060154973 0.07938271 0.0068260571
-0.068460234 0.04407569 0.006723457
-0.066681921 0.045533959 0.006720623
-0.064691588 0.046594191 0.0067246836
-0.063099302 0.047442336 0.0067279795
-0.0033891224 0.079248816 0.0068511264
-0.0014918197 0.080004014 0.0068583107
0.00040547914 0.080759205 0.0068655247
-0.070398681 0.040999275 0.0067456812
-0.069416508 0.042033475 0.0067411694
-0.067824222 0.042881619 0.006744436
-0.065833896 0.043941852 0.0067485855
-0.00055076607 0.078716941 0.0068832375
0.0014395686 0.079777174 0.0068872976
0.0030318559 0.080625318 0.006890594
0.0045621055 0.081270136 0.0068959426
-0.071549661 0.038683027 0.0067651719
-0.070160739 0.039593171 0.0067658359
-0.068568483 0.040441368 0.0067691314
0.0021849358 0.07787326 0.0067183403
0.0038798852 0.079033211 0.0069185561
0.0054721367 0.0798814 0.0069218511
0.0070023863 0.080526225 0.0069272006
0.0084706228 0.080967665 0.0069346023
-0.073090039 0.035818648 0.0067882198
-0.07130304 0.036940832 0.0067897378
-0.069312714 0.03800106 0.0067938277
0.0063201734 0.078289293 0.0069498131
0.0079124607 0.079137437 0.0069531095
0.0099027883 0.08019767 0.0069572292
0.012105131 0.080859862 0.0069683022
0.013299346 0.08149597 0.0069707744
-0.074595831 0.031610172 0.0068288203
-0.073661201 0.032925509 0.006820255
-0.072233357 0.033890504 0.0068205921
-0.070265129 0.03496483 0.0067132111
0.012953159 0.079267755 0.006996294
0.014545426 0.080115952 0.0069995895
0.016142888 0.080762491 0.0070054661
0.018247019 0.081321247 0.0070170234
-0.075738125 0.028957834 0.0068526622
-0.07435786 0.030204015 0.0068489756
-0.072765596 0.031052213 0.0068522412
0.017197719 0.078973994 0.0070378003
0.019188082 0.080034174 0.0070419502
0.021116396 0.080891028 0.0070480639
0.022584615 0.081332527 0.0070554651
-0.078472711 0.025457351 0.0068732682
-0.076890819 0.026708746 0.0068712835
-0.075102113 0.027763763 0.0068736412
-0.073509827 0.028611908 0.0068769371
0.020036111 0.078442067 0.0070699123
0.022026442 0.079502299 0.0070739724
0.0236187 0.080350496 0.0070772679
0.025148951 0.080995314 0.0070826164
0.02661719 0.081436761 0.0070900186
-0.079615019 0.022805005 0.0068971105
-0.078234755 0.024051189 0.0068934234
-0.076244414 0.025111422 0.0068975436
0.024379391 0.07844694 0.0069084517
0.026059017 0.079606533 0.0071085258
0.027651276 0.080454729 0.0071118213
0.02905751 0.080692798 0.007121277
-0.081129432 0.018932518 0.0069333306
-0.080194823 0.02024791 0.0069247647
-0.078766987 0.021212904 0.0069251321
-0.076975212 0.022050139 0.006787423
0.027141143 0.077661768 0.0069764135
0.028711321 0.078464583 0.0071467962
0.030534783 0.079289876 0.0071524279
-0.082280412 0.016616268 0.0069527915
-0.08089149 0.017526416 0.0069534853
-0.079299234 0.018374611 0.0069567808
-0.077706948 0.019222749 0.0069600474
0.029771362 0.076474428 0.0071817413
0.031761698 0.077534668 0.007185861
0.033353955 0.078382857 0.0071891267
-0.083414063 0.01362789 0.0069810445
-0.082033791 0.014874072 0.0069773877
-0.080043457 0.015934305 0.0069814473
-0.078566626 0.01681467 0.006483241
0.032609727 0.075942554 0.0072138528
0.034600057 0.077002786 0.0072179129
0.03600629 0.077240855 0.0072273682
-0.083176114 0.012221786 0.0070011988
-0.081185788 0.01328202 0.0070053483
-0.079370521 0.014385022 0.0062572248
0.035448089 0.075410679 0.0072458745
0.037040375 0.076258823 0.0072491709
-0.083522283 0.0099935159 0.0070267194
-0.082328089 0.010629679 0.0070291907
-0.080226347 0.011473801 0.0064120302
0.036297277 0.073364742 0.0069463374
0.037888411 0.074666716 0.0072771329
0.039418653 0.075311534 0.0072824815
-0.084037222 0.0064831446 0.0070671896
-0.082860306 0.0077913348 0.0070609003
-0.081307784 0.0086454581 0.0068970267
-0.079470597 0.009445928 0.0062125493
0.038977321 0.072719119 0.0071451738
0.040540706 0.073524758 0.0073154033
0.042138178 0.074171305 0.0073213098
0.043751176 0.074213035 0.0073351068
-0.084586762 0.0043169325 0.0070900768
-0.083392553 0.0049530398 0.007092549
-0.081860557 0.0058080428 0.0068451967
-0.080445647 0.0066801589 0.0060964846
0.040185358 0.070938058 0.0063453135
0.041646171 0.071597748 0.0070999302
0.043193012 0.072382808 0.0073536439
0.045066524 0.073278591 0.0073588011
-0.084136806 0.0025127844 0.0071172146
-0.082605422 0.0033656382 0.0068699089
-0.081192471 0.0042314818 0.0061212741
-0.079594702 0.0050825812 0.0061245617
0.042587593 0.070128754 0.0066270828
0.044041038 0.070790693 0.0073816059
0.046031374 0.071850933 0.0073857252
0.04762366 0.072699077 0.0073889918
-0.083686851 0.00070864323 0.007144412
-0.081817202 0.0017761808 0.0066472706
-0.080341496 0.002633848 0.0061493213
0.043485027 0.068593942 0.0064047249
0.045034207 0.069382906 0.0066583902
0.0468794 0.070258819 0.007413717
0.04886977 0.071319006 0.0074177776
0.050275955 0.071557119 0.0074272323
-0.084219068 -0.0021297045 0.0071760616
-0.082626797 -0.0012815032 0.0071793571
-0.080875568 -0.00021424297 0.0061811153
-0.079277806 0.00063686364 0.0061844029
0.046146475 0.067448065 0.0064431233
0.047913734 0.068466298 0.0068208529
0.049849551 0.069158845 0.0073113674
0.051527239 0.069975451 0.0074586584
0.053140271 0.070017129 0.0074724862
-0.083557121 -0.0043318332 0.007210182
-0.081646644 -0.0032722764 0.006880241
-0.079811886 -0.0022112275 0.0062161963
0.04880796 0.066302128 0.006481492
0.050769243 0.067325674 0.0066524823
0.052582074 0.068186954 0.0074909925
0.054112323 0.068831772 0.0074963416
-0.084097989 -0.0068341391 0.0072374805
-0.082709067 -0.0059239957 0.0072381743
-0.080837399 -0.0048679681 0.0067412024
-0.07896094 -0.003808809 0.0062442729
0.049658902 0.064704545 0.006509569
0.05165609 0.065768421 0.006513685
0.053485759 0.066653684 0.0072686779
0.055022385 0.067442983 0.007522251
0.056428596 0.067681111 0.0075317053
-0.084435523 -0.009398398 0.0072673811
-0.083453327 -0.0083642472 0.0072628399
-0.081542738 -0.0073093032 0.0069329487
-0.079707749 -0.0062574861 0.0062690331
0.052507039 0.064170845 0.0065417322
0.054447554 0.065176196 0.0067961123
0.055870418 0.065850876 0.0075502126
0.05740067 0.066495694 0.0075555616
-0.085179761 -0.011838698 0.0072920769
-0.084197588 -0.010804499 0.0072875354
-0.082605295 -0.0099563543 0.0072908318
-0.080813587 -0.0089151477 0.0064599765
-0.078856781 -0.0078551155 0.0062971106
0.053358003 0.062573209 0.0065698093
0.055355206 0.063637085 0.0065739262
0.056776911 0.064315617 0.0073279752
0.058591966 0.065154552 0.0075833616
-0.084729798 -0.013642843 0.0073192446
-0.083137535 -0.012794646 0.0073225405
-0.081706069 -0.011968922 0.0066578668
-0.079790302 -0.010915986 0.0063280752
0.054670624 0.061392453 0.0065966276
0.056418885 0.061640102 0.0066090073
0.057976969 0.062453516 0.0067791343
0.059795901 0.063353546 0.0075060921
0.061785121 0.063380972 0.0076345312
-0.083669752 -0.015632993 0.0073541896
-0.082077488 -0.014784795 0.0073574558
-0.080723807 -0.01397685 0.0063590398
-0.078726612 -0.012912971 0.0063631558
0.057882015 0.05985589 0.0066449177
0.059080347 0.060494222 0.0066473754
0.06091084 0.061411362 0.0073186462
0.062757164 0.062195614 0.0076583866
-0.084015936 -0.017861206 0.0073796795
-0.082821749 -0.017225048 0.0073821507
-0.081349343 -0.016400872 0.0068846112
-0.079872869 -0.015574427 0.0063870866
0.059931319 0.058896586 0.0066754529
0.061843697 0.059888709 0.0070131309
0.06366723 0.060806829 0.007684296
-0.083362624 -0.019727349 0.0074094497
-0.081973724 -0.018817155 0.0074101128
-0.080559589 -0.018009752 0.0066622514
-0.079021893 -0.017172061 0.0064151641
0.061181687 0.05751178 0.0067043588
0.0626937 0.058292925 0.00704112
0.064515255 0.059214722 0.0077122576
0.065921456 0.059452839 0.0077217123
-0.083116025 -0.021469492 0.0074340147
-0.081014059 -0.020631503 0.0070418911
-0.079555973 -0.020020148 0.0064469576
-0.077958219 -0.019169046 0.0064502452
0.063443691 0.056153115 0.0067418981
0.065054163 0.05726641 0.0073134461
0.066557474 0.058258772 0.0077426909
-0.0837413 -0.024612827 0.0074687582
-0.082055978 -0.023459643 0.0074689602
-0.08024957 -0.022657674 0.0066746417
-0.078492284 -0.022017136 0.0064820386
-0.076894537 -0.021166038 0.0064853262
0.064632036 0.054087967 0.0073790317
0.066290416 0.05556982 0.0076319468
0.068015598 0.056480661 0.0077785198
-0.08298631 -0.026509976 0.0074998145
-0.081035405 -0.025463095 0.0073370896
-0.0792391 -0.024465818 0.0065067988
-0.077641346 -0.02361471 0.0065100854
-0.076043591 -0.022763612 0.0065134028
0.067483351 0.053642366 0.0078101689
0.069075629 0.05449051 0.007813435
0.070269808 0.055126667 0.0078159068
-0.08213827 -0.028102083 0.0075277765
-0.080226123 -0.027069876 0.007198168
-0.078388155 -0.026063392 0.0065348754
-0.076790392 -0.025212288 0.0065381625
-0.075804792 -0.024174614 0.0065336167
0.068331383 0.052050259 0.00783813
0.069923624 0.052898448 0.0078414259
0.071117848 0.05353456 0.0078438688
-0.081290245 -0.029694194 0.0075557386
-0.079455316 -0.028694095 0.0068925135
-0.077537186 -0.027661026 0.0065629529
-0.076143496 -0.026747694 0.0065636281
0.069241405 0.050661523 0.0078640394
0.070771664 0.051306345 0.007869388
0.071965873 0.051942453 0.0078718308
-0.080230199 -0.031684339 0.0075907432
-0.078392841 -0.03068882 0.0069275298
-0.076473512 -0.029658014 0.0065980335
-0.07570067 -0.02822087 0.0065864529
0.070637517 0.048680037 0.0079018911
0.071831711 0.049316201 0.0079043629
0.073330969 0.049859308 0.0079107238
-0.079170145 -0.033674486 0.0076256585
-0.077330373 -0.032683492 0.0069626048
-0.075409815 -0.031655002 0.006633115
0.071299456 0.046477906 0.007936012
0.072891749 0.047326047 0.007939308
0.074484006 0.048174247 0.0079426039
-0.07832212 -0.035266597 0.0076536504
-0.076480381 -0.034279283 0.0069906237
-0.074558869 -0.033252578 0.0066611618
0.070696011 0.044116419 0.0074609006
0.071892276 0.04475363 0.0074633509
0.073601298 0.045559537 0.0077682436
0.075332038 0.046582136 0.0079705659
0.076738268 0.046820205 0.0079800207
-0.077474087 -0.036858704 0.0076816119
-0.075630426 -0.035875019 0.0070186718
-0.073707893 -0.03485021 0.0066892393
0.072487287 0.043025263 0.0069907834
0.07438533 0.044035517 0.007328046
0.076180063 0.044990025 0.007998527
0.077374279 0.045626134 0.0080009997
-0.076626062 -0.038450811 0.007709574
-0.074780434 -0.03747081 0.0070466911
-0.073061027 -0.036385559 0.0067147044
0.073338255 0.041427631 0.0070188306
0.075285494 0.042465407 0.0071895393
0.077028103 0.043397918 0.0080264891
0.078222312 0.044034027 0.0080289617
-0.075566046 -0.040440913 0.0077445777
-0.073717952 -0.039465539 0.007081707
-0.072192706 -0.038657553 0.0067515676
0.074401937 0.039430637 0.0070539122
0.076399148 0.04049452 0.0070580584
0.078088142 0.041407768 0.0080614937
0.079680391 0.042255964 0.0080647897
-0.075700223 -0.043067165 0.0077770511
-0.074179217 -0.042264458 0.0074468968
-0.072327338 -0.041292865 0.0067841606
-0.071129024 -0.04065454 0.0067866482
0.074480049 0.036395926 0.0070935395
0.075465627 0.037433654 0.0070890225
0.077462822 0.038497534 0.0070931395
0.079148196 0.039417624 0.0080964388
0.080740437 0.040265817 0.008099705
-0.075046912 -0.044933312 0.007806791
-0.073401451 -0.043906119 0.0071415207
-0.071476378 -0.042890497 0.0068122381
0.075118251 0.035197753 0.0071146116
0.076316573 0.035836075 0.0071170698
0.078313768 0.03689995 0.0071211862
0.079996221 0.037825514 0.0081244009
0.081588469 0.038673706 0.008127667
0.082994677 0.038911834 0.0081371218
-0.075384416 -0.047497619 0.007836692
-0.074402235 -0.046463415 0.0078321509
-0.072622634 -0.045551959 0.0068361987
-0.070829488 -0.044425845 0.0068377033
0.075569779 0.033387344 0.0071418602
0.077167541 0.034238447 0.0071451473
0.079164736 0.035302322 0.0071492638
0.081002392 0.036299463 0.0076528834
0.082436495 0.037081599 0.0081556588
0.083630718 0.037717707 0.0081581008
-0.074748389 -0.048691686 0.007857671
-0.073660851 -0.048134126 0.0073601236
-0.071974009 -0.047154784 0.0068625072
0.076820165 0.032002538 0.0071707359
0.078018479 0.032640863 0.0071731941
0.080015682 0.033704743 0.0071773403
0.08195737 0.034264613 0.0080208853
0.083496541 0.035091449 0.0081906337
0.084266737 0.03652364 0.0081790797
-0.073688351 -0.050681837 0.0078926161
-0.072917946 -0.049810991 0.0068882052
-0.071932338 -0.048773307 0.0068836603
0.077671111 0.030404959 0.0071988129
0.079082169 0.030643877 0.0072083049
0.081079364 0.031707752 0.0072124214
0.082964301 0.032253161 0.0082222819
0.084556565 0.033101354 0.0082255779
0.080145858 0.028646896 0.007243386
0.082088977 0.029692397 0.0074139442
0.083812334 0.030661054 0.0082502738
0.085201249 0.031571191 0.0082509378
0.080996834 0.027049262 0.0072714337
0.082885087 0.028077869 0.0076084118
0.084660359 0.029068943 0.0082782358
0.085854545 0.0297051 0.0082807075
0.082247213 0.02566446 0.0073003396
0.083844967 0.026515558 0.0073036267
0.085508391 0.027476834 0.0083061978
0.08670257 0.028112996 0.0083086696
0.08331091 0.023667475 0.0073354207
0.084908657 0.02451857 0.0073387078
0.086568438 0.025486687 0.0083412025
0.087762617 0.026122842 0.0083436146
-0.066401161 -0.059157655 0.0070660999
0.084374584 0.021670483 0.0073705018
0.085972369 0.022521529 0.0073737898
0.087628447 0.023496592 0.0083761169
0.088822663 0.024132697 0.0083785895
-0.065975681 -0.059956469 0.0070801084
0.084826112 0.019860074 0.0073977499
0.086710013 0.020896889 0.0077345707
0.088476479 0.021904483 0.0084041087
0.089458682 0.02293863 0.0083995676
-0.063500933 -0.061714534 0.007124682
-0.061903171 -0.060863432 0.0071279989
-0.060305417 -0.060012333 0.007131286
0.084283374 0.017349172 0.007425121
0.08567705 0.018262496 0.0074257967
0.087503187 0.019288974 0.0079289405
0.089324504 0.020312373 0.0084320707
-0.06326215 -0.063125536 0.0071449257
-0.061264943 -0.06206166 0.0071490416
-0.059667185 -0.061210558 0.0071523292
-0.058069423 -0.060359452 0.0071556163
-0.056658365 -0.060120538 0.0071651088
0.083944671 0.014776081 0.0074551329
0.084930241 0.015813814 0.0074505862
0.086742043 0.016699472 0.0076553193
0.088366941 0.017838163 0.0082552908
0.089774467 0.018508228 0.0084592085
-0.062119674 -0.064677343 0.0076750536
-0.060287293 -0.064232878 0.0073284409
-0.05860351 -0.063207544 0.0071874103
-0.057005744 -0.062356442 0.0071906974
-0.055807419 -0.061718114 0.0071931849
0.084702261 0.012872414 0.0074862819
0.086177357 0.013786047 0.0076305512
0.087780915 0.014988981 0.0082366215
0.089475863 0.015998766 0.0084887529
0.090410508 0.017314104 0.0084801884
-0.0609635 -0.066896677 0.0082138609
-0.059425559 -0.066121325 0.0078842137
-0.057539809 -0.065204531 0.0072224913
-0.055942047 -0.064353429 0.0072258087
-0.054956485 -0.06331569 0.007221262
0.085459881 0.010968691 0.0075174621
0.087343037 0.012015735 0.0078541385
0.089108072 0.013043626 0.0085233906
0.090090282 0.014077777 0.0085188495
-0.06011546 -0.068488784 0.0082418229
-0.058550015 -0.067677669 0.008078672
-0.056688868 -0.066802114 0.0072505679
-0.055091076 -0.065951064 0.0072538559
-0.054105513 -0.064913325 0.0072493092
0.086310826 0.0093711093 0.0075455089
0.088193029 0.010419947 0.0078821573
0.089956105 0.011451519 0.0085513527
-0.059267435 -0.070080899 0.008269785
-0.057675168 -0.069232695 0.0082731098
-0.055837896 -0.068399742 0.0072786454
-0.054240137 -0.067548633 0.007281933
-0.052829079 -0.067309715 0.007291425
0.087161772 0.0077735274 0.0075735855
0.089043014 0.0088241557 0.0079101771
0.09080413 0.0098594092 0.0085793445
-0.059799679 -0.07291919 0.008301463
-0.058605466 -0.072283082 0.0083039654
-0.056615129 -0.071222842 0.0083080847
-0.054909311 -0.070232034 0.0075103878
-0.053389195 -0.069146216 0.0073100096
-0.051853646 -0.068499207 0.0073153554
0.08801274 0.0061759008 0.0076016332
0.089892976 0.0072284159 0.0079382248
0.091652162 0.0082673021 0.0086073065
0.093292028 0.0088342596 0.0086146267
-0.057545457 -0.074273176 0.0083389096
-0.055555079 -0.073212989 0.0083430298
-0.053641677 -0.071918748 0.0081434082
-0.052279003 -0.071063399 0.0076778568
-0.050727747 -0.0702921 0.0073483777
-0.048723098 -0.069517285 0.0073562516
-0.046707306 -0.069175944 0.00736982
0.087878108 0.0035405818 0.007634256
0.08907643 0.0041789091 0.0076367441
0.090674177 0.005030008 0.0076400312
0.092452265 0.0058542769 0.0077881315
-0.054707061 -0.074805103 0.0083710216
-0.052716732 -0.073744871 0.0083750812
-0.051124468 -0.072896674 0.0083783772
-0.049532179 -0.07204853 0.0083816433
-0.047645681 -0.071185276 0.0075539681
-0.045669638 -0.070161387 0.0073916921
0.08894179 0.0015435972 0.0076693376
0.090140119 0.0021819244 0.0076718251
0.091737866 0.0030330236 0.0076751122
-0.053859022 -0.07639721 0.0083989836
-0.051868699 -0.075336978 0.0084030433
-0.050276443 -0.074488781 0.0084063392
-0.048684146 -0.073640637 0.0084096352
-0.046919461 -0.072633572 0.0082123941
-0.044992097 -0.071918026 0.0076202983
-0.043283146 -0.071111962 0.0074251154
0.089579992 0.00034542612 0.0076903799
0.090778321 0.00098375697 0.0076928674
-0.051020667 -0.076929085 0.0084310351
-0.0494284 -0.076080889 0.0084343012
-0.047836121 -0.075232744 0.0084375972
-0.046243861 -0.074384548 0.0084408633
-0.04427214 -0.07336469 0.0082786484
-0.042369965 -0.072505496 0.0074511338
-0.04117164 -0.071867168 0.0074535916
0.089258671 -0.002902068 0.0077292081
0.090456985 -0.0022637446 0.0077316659
0.092046067 -0.0010754628 0.0077305599
-0.045090798 -0.076069668 0.0084727434
-0.043193489 -0.07531447 0.0084799873
-0.041519012 -0.074103072 0.0074791806
-0.039921258 -0.07325197 0.0074824975
0.089497454 -0.0043130708 0.007749422
0.091095209 -0.0034619682 0.0077527091
0.092510089 -0.0029154648 0.0080083031
-0.043725733 -0.078152761 0.0085116364
-0.042133454 -0.077304617 0.0085149324
-0.040438652 -0.076057211 0.0076805516
-0.038857568 -0.075248957 0.0075175785
-0.037659254 -0.074610628 0.0075200368
0.088776685 -0.0077733444 0.0077873911
0.090161704 -0.0065228348 0.0077836737
0.09203992 -0.0054543996 0.0081200497
-0.043089692 -0.07934688 0.0085325856
-0.041285422 -0.078896724 0.0085428944
-0.03934266 -0.077966429 0.0080481814
-0.03779389 -0.077245943 0.0075526596
-0.036196128 -0.076394841 0.0075559467
0.088242613 -0.010621428 0.007819185
0.08922819 -0.0095836939 0.0078146383
0.091225386 -0.0085198227 0.0078187548
0.092643902 -0.0076587792 0.0083204061
-0.04003932 -0.080276802 0.0085716806
-0.038493186 -0.079561271 0.0080761854
-0.036942918 -0.078843579 0.0075807073
-0.035345159 -0.077992477 0.0075840242
0.087096348 -0.013282888 0.0078431452
0.088481367 -0.012032378 0.0078394283
0.090079136 -0.011181272 0.0078427149
0.09201657 -0.01011296 0.0080129206
0.093313411 -0.0092423158 0.0088467235
-0.039005231 -0.081258833 0.0085934531
-0.037599035 -0.081020713 0.0086029079
-0.035868097 -0.080583863 0.0078125987
-0.034893658 -0.079802833 0.0076112421
0.08674898 -0.015518789 0.0078687342
0.08773455 -0.014481059 0.0078641875
0.089469992 -0.013818593 0.0080711357
0.09122768 -0.012932676 0.0087643992
0.092967227 -0.011470526 0.0088722128
0.0862149 -0.018366884 0.0079005277
0.087200485 -0.017329147 0.007895981
0.088740468 -0.01646962 0.0080653355
0.090121083 -0.015791489 0.0087023424
0.091647498 -0.015068932 0.0089066541
0.086469308 -0.020384816 0.0079286853
0.088264197 -0.019326188 0.007931063
0.089514337 -0.018419383 0.0089306561
0.09090326 -0.017509235 0.0089313202
0.085324779 -0.0231137 0.0079534873
0.08711794 -0.021987643 0.0079549933
0.088855855 -0.020875558 0.0087062931
0.090362363 -0.020011492 0.0089586182
0.091344565 -0.018977342 0.0089541078
0.084577985 -0.025562432 0.0079782782
0.085971691 -0.024649099 0.0079789534
0.087797292 -0.023548856 0.0084811402
0.089618139 -0.022451794 0.008983315
0.090600334 -0.021417651 0.0089787738
-0.023355285 -0.085696384 0.0087896306
-0.022161094 -0.085060216 0.0087921023
-0.020782648 -0.084243529 0.0084604835
0.083831169 -0.028011115 0.0080030374
0.085224859 -0.027097786 0.0080037136
0.087288223 -0.026397411 0.0084417025
0.08890339 -0.025278525 0.0088703791
0.090068094 -0.024255943 0.0090104528
-0.021127015 -0.086042255 0.0088138748
-0.020118853 -0.086016223 0.0088225361
0.081521317 -0.032659668 0.0080421427
0.082929313 -0.031177225 0.0080356142
0.084690787 -0.029945873 0.0080355071
0.086176306 -0.029063197 0.0083707748
0.087999307 -0.028242921 0.0089003425
0.089535847 -0.027094234 0.0090421308
-0.018685924 -0.087653443 0.0081895469
0.080774494 -0.035108354 0.0080669019
0.081760071 -0.034070618 0.0080623552
0.083757311 -0.033006787 0.0080664726
0.085503861 -0.031866256 0.008817466
0.087013267 -0.030992763 0.0090697203
0.088402204 -0.03008261 0.0090703843
-0.017640317 -0.088974707 0.0082157915
-0.015713546 -0.088214807 0.0078898026
-0.014240241 -0.087771848 0.0078972373
0.079628244 -0.037769802 0.0080908323
0.081013277 -0.036519352 0.0080871163
0.082827754 -0.035597693 0.0082914671
0.084526494 -0.034373019 0.0086909141
0.086269043 -0.033433061 0.0090943864
0.087657936 -0.032522868 0.0090950793
-0.016778653 -0.090368427 0.0089080688
-0.015192292 -0.089669965 0.0084131639
-0.013202599 -0.088757239 0.0079191085
-0.011604839 -0.087906137 0.0079223961
-0.010069299 -0.087259136 0.0079277717
-0.0085960208 -0.086816117 0.0079351757
0.077283695 -0.041069642 0.0081123356
0.07887277 -0.039881364 0.0081112292
0.080266476 -0.038968027 0.0081119053
0.082081445 -0.038044672 0.0083161835
0.083715975 -0.036793061 0.0089147938
0.085524783 -0.035873316 0.0091190813
0.086913705 -0.034963172 0.0091197751
-0.014002304 -0.091103673 0.0089422334
-0.012136501 -0.090500295 0.0087843984
-0.010542697 -0.089751519 0.0084555876
-0.0091100102 -0.088874489 0.0081570223
-0.007158916 -0.087588795 0.0079578767
-0.0053484077 -0.087137096 0.0079681985
0.075737998 -0.043943875 0.008135437
0.077522449 -0.042480592 0.008132549
0.079519659 -0.041416712 0.0081366654
0.081223592 -0.040919807 0.0084788175
0.083037876 -0.039786063 0.0090360725
0.084828123 -0.038594808 0.0091478024
0.085762724 -0.03727942 0.0091392361
-0.010889887 -0.091830269 0.0089792162
-0.0094216745 -0.091388769 0.0089866174
-0.0079368399 -0.090522774 0.008788717
-0.0060970718 -0.089551978 0.0081036408
-0.0040980252 -0.088521898 0.0079970742
-0.0024950518 -0.087873124 0.0080030393
-0.00075200532 -0.087423146 0.0080127707
0.07421834 -0.047829699 0.0081717772
0.075156152 -0.046509735 0.0081631932
0.076588944 -0.045541454 0.0081635136
0.078516871 -0.044444896 0.0083888303
0.080372393 -0.04331857 0.00883538
0.082071893 -0.042822167 0.0091775255
0.083460815 -0.041912023 0.0091781896
-0.0069813654 -0.09213274 0.0090178754
-0.0054511158 -0.091487922 0.009023224
-0.0034464793 -0.090578973 0.0085293204
-0.0014365809 -0.08966779 0.0080354726
0.00016117892 -0.08881668 0.0080387592
0.0017589425 -0.087965578 0.0080420468
0.0039688824 -0.087301113 0.0080531975
0.0059661134 -0.086237282 0.0080573149
0.0075638695 -0.085386187 0.0080606015
0.0087621883 -0.084747858 0.00806309
0.073471524 -0.050278384 0.0081965365
0.074457109 -0.049240645 0.0081919897
0.076054864 -0.048389547 0.0081953071
0.077846713 -0.047222298 0.0088629937
0.079735406 -0.046110667 0.0091989264
0.081327654 -0.045262475 0.0092021916
0.082707934 -0.044016287 0.0091985045
-0.0048150984 -0.092681989 0.009044203
-0.0026127559 -0.092019796 0.0090553062
-0.00061305787 -0.0910355 0.0088104224
0.00099064549 -0.090262182 0.0085647544
0.0026099104 -0.089563213 0.0080701243
0.0046071094 -0.088499337 0.0080742408
0.0066043157 -0.087435454 0.0080783572
0.0081847906 -0.086511753 0.0083305771
0.0097998297 -0.08573325 0.0080849612
0.068330877 -0.055067591 0.0082122637
0.069928639 -0.054216489 0.0082155513
0.071915433 -0.05274801 0.008214402
0.073710322 -0.051689379 0.0082167806
0.075308077 -0.050838277 0.0082200672
0.076678 -0.049864043 0.0089698704
0.078593075 -0.048762958 0.0092227971
0.080371417 -0.047304738 0.0092199044
-0.0015786591 -0.093001828 0.0090770787
0.00022560792 -0.092551671 0.0090873577
0.0020247011 -0.091899917 0.0090949964
0.0036221696 -0.09125337 0.0091009624
0.0056124968 -0.090193138 0.0091050519
0.007602856 -0.089132957 0.009109173
0.0091951191 -0.088284768 0.0091124382
0.010787376 -0.087436572 0.0091157341
0.012417213 -0.0869058 0.0087233223
0.014059038 -0.086028032 0.0081266165
0.065977626 -0.058030196 0.0082293432
0.067371316 -0.057116862 0.0082300194
0.068969078 -0.05626576 0.008233306
0.070876651 -0.055489771 0.0084403334
0.072750539 -0.054551601 0.0084949732
0.074576341 -0.053567663 0.0089153135
0.076070502 -0.052661479 0.0092503866
0.077498369 -0.051696539 0.0092506651
0.078831039 -0.050169114 0.009242923
0.006460526 -0.091785245 0.0091329841
0.008662872 -0.091123059 0.0091440873
0.010255162 -0.090274915 0.0091473833
0.011847419 -0.089426719 0.0091506494
0.013439707 -0.088578574 0.0091539454
0.015096704 -0.087013483 0.0081484895
0.017093902 -0.085949607 0.0081526358
0.018691665 -0.085098505 0.0081559224
0.020227211 -0.084451497 0.0081612691
0.022099923 -0.083795704 0.0081695318
0.062842846 -0.06209271 0.0082535502
0.06482964 -0.060624227 0.0082524009
0.06662453 -0.059565596 0.0082547795
0.068222292 -0.058714498 0.0082580671
0.069939144 -0.058197737 0.0086001037
0.071768008 -0.057209361 0.0090203965
0.073945999 -0.056347966 0.0092787398
0.075326271 -0.055101786 0.0092750527
0.076520488 -0.054465678 0.0092774956
0.0111652 -0.091663644 0.0091732917
0.012695449 -0.091018826 0.0091786403
0.014287709 -0.090170629 0.0091819065
0.016118275 -0.088876918 0.0086259898
0.018123379 -0.087847561 0.0085195182
0.019719314 -0.086997442 0.0085227983
0.021315249 -0.086147331 0.0085260784
0.023167485 -0.085061774 0.0084452918
0.024792431 -0.084492818 0.0087024868
0.036158457 -0.079383336 0.0082379747
0.041351177 -0.076617256 0.0082486952
0.042948935 -0.075766154 0.0082519827
0.055331595 -0.069170162 0.008277541
0.057318367 -0.06770163 0.008276362
0.059113253 -0.066643 0.0082787694
0.060498301 -0.065392539 0.0082750237
0.062096059 -0.064541444 0.0082783401
0.063693814 -0.063690342 0.0082816277
0.065631598 -0.062579915 0.0085068634
0.067551799 -0.061459914 0.0087873889
0.069100894 -0.060576696 0.0089565208
0.070813343 -0.060060482 0.0092985211
0.072498657 -0.058907304 0.0092986934
0.013605516 -0.092407614 0.0092045497
0.015135768 -0.091762789 0.0092098992
0.017126096 -0.090702556 0.0092140185
0.019116426 -0.089642331 0.0092181079
0.020708716 -0.088794179 0.009221375
0.022300974 -0.08794599 0.00922467
0.023893233 -0.087097794 0.009227966
0.025883591 -0.086037613 0.0092320861
0.027687866 -0.085587457 0.0092423353
0.03529596 -0.081312552 0.0089218048
0.036672875 -0.080379151 0.0090054469
0.038394418 -0.079730406 0.0082623344
0.039992176 -0.078879304 0.008265622
0.041989405 -0.077815481 0.0082697384
0.043986604 -0.076751605 0.0082738549
0.045584362 -0.075900503 0.0082771722
0.047182124 -0.0750494 0.0082804598
0.048779882 -0.074198298 0.0082837464
0.050777081 -0.073134415 0.0082878629
0.05277428 -0.072070539 0.0082919793
0.054372039 -0.071219437 0.0082952967
0.055969801 -0.070368335 0.0082985833
0.057926755 -0.069266096 0.0084685292
0.059841428 -0.068126597 0.008804325
0.061436452 -0.067276977 0.0088076023
0.062967338 -0.066372633 0.009059676
0.06449616 -0.065469399 0.0093117114
0.066486493 -0.064409167 0.0093158316
0.068476856 -0.063348986 0.009319922
0.069857128 -0.062102802 0.009316205
0.071051314 -0.061466642 0.0093186768
0.015771784 -0.092956856 0.0092308773
0.018090941 -0.092130221 0.0092408834
0.019964457 -0.091234438 0.0092460699
0.021556716 -0.090386242 0.0092493659
0.023149004 -0.089538097 0.009252632
0.024741262 -0.088689901 0.009255928
0.026731621 -0.087629721 0.0092600482
0.028721953 -0.086569488 0.0092641376
0.030252201 -0.08592467 0.0092694862
0.032118514 -0.085271187 0.0092776828
0.034098454 -0.083807699 0.0092765214
0.035887189 -0.082752734 0.0092789102
0.037479445 -0.081904538 0.0092822053
0.039071705 -0.081056349 0.0092854714
0.040753204 -0.080341883 0.0087912073
0.042746957 -0.079279803 0.0087953405
0.044740736 -0.078217775 0.008799444
0.046335761 -0.077368155 0.0088027203
0.047930785 -0.076518528 0.0088060275
0.04978618 -0.075596154 0.0089107305
0.051657937 -0.074467175 0.0087128663
0.053513337 -0.0735448 0.0088175396
0.055108357 -0.072695173 0.0088208169
0.056644697 -0.071786188 0.0090728635
0.058577023 -0.070666224 0.009325726
0.060567386 -0.069606043 0.0093298163
0.062159643 -0.068757847 0.0093331113
0.063548572 -0.067847699 0.0093337763
0.065132178 -0.066663466 0.0093326606
0.066724464 -0.065815322 0.0093359575
0.029756039 -0.087551519 0.0092859408
0.030950256 -0.086915411 0.0092883827
0.032542512 -0.086067215 0.0092916787
0.034532845 -0.085006982 0.0092957681
0.036797225 -0.08414147 0.0093048187
0.038327474 -0.083496653 0.0093101673
0.039919734 -0.082648456 0.0093134623
0.041512024 -0.081800312 0.0093167294
0.043502353 -0.080740079 0.0093208784
0.045492683 -0.079679847 0.0093249381
0.047296982 -0.079229742 0.0093352478
0.048677232 -0.077983506 0.0093315002
0.050667562 -0.076923274 0.0093356501
0.052657921 -0.075863093 0.0093397107
0.054250181 -0.075014897 0.0093430057
0.055842467 -0.07416676 0.0093463026
0.057222713 -0.072920524 0.0093425848
0.059213039 -0.071860291 0.0093466742
0.05587608 0.060417689 0.0056197383
0.056917302 0.059428874 0.0056416793
0.058973607 0.058466323 0.0056723151
0.060228307 0.057076734 0.0057013119
-0.075547293 -0.027081532 0.005573066
-0.074928686 -0.029015699 0.0056033703
-0.074026883 -0.030901972 0.0056356108
-0.073173031 -0.032505024 0.0056637721
-0.072319143 -0.034108125 0.0056919344
0.071171947 0.042326905 0.0059878812
-0.072454236 -0.036752496 0.0057246489
-0.071465254 -0.035711225 0.0057200971
0.072025828 0.040723801 0.0060160435
-0.071600355 -0.0383556 0.0057528112
0.073093198 0.03871993 0.006051261
-0.070533037 -0.040359426 0.0057880278
0.073955782 0.036778506 0.0060838284
-0.070079952 -0.042176042 0.005815356
0.073010333 0.034045476 0.0061104978
0.074613594 0.034899481 0.0061138063
-0.070215046 -0.044820413 0.0058480697
0.073864222 0.032442372 0.00613866
-0.070964426 -0.047277521 0.0058729532
-0.069975443 -0.046236254 0.0058683716
0.074718095 0.03083927 0.0061668223
0.076321334 0.031693332 0.0061701303
-0.073691733 -0.051817223 0.0059069106
-0.071994796 -0.050656069 0.0059071085
-0.070511349 -0.049094141 0.005900281
0.075785428 0.028835448 0.0062020095
0.077695832 0.029595822 0.0062092636
-0.073264793 -0.052618772 0.0059209913
-0.071448088 -0.052165497 0.0059313551
-0.069444016 -0.051097967 0.0059354687
0.078856856 0.02789909 0.0062413705
-0.070476569 -0.053603031 0.005958416
-0.068590134 -0.052701067 0.005963631
0.079710715 0.026296042 0.0062695323
-0.06927707 -0.054953419 0.0059864204
-0.067736246 -0.054304175 0.0059917932
0.080564603 0.024692941 0.0062976945
0.081767045 0.025333429 0.006300169
-0.06829828 -0.056146991 0.0060104551
-0.066882387 -0.05590722 0.0060199546
0.081418484 0.023089839 0.0063258568
0.082620904 0.023730382 0.0063283304
-0.065815032 -0.057911098 0.0060551725
-0.064211771 -0.05705709 0.0060584811
0.080481768 0.020018436 0.0063569313
0.08248581 0.021086009 0.006361044
0.083688267 0.021726504 0.0063635483
-0.065736651 -0.060956243 0.0060949419
-0.064747684 -0.059914976 0.0060903607
-0.063144445 -0.059060916 0.0060936688
-0.061541185 -0.058206912 0.0060969768
0.081549093 0.01801461 0.0063921185
0.083553173 0.019082135 0.006396262
-0.065096244 -0.062158573 0.0061160484
-0.064107291 -0.06111725 0.0061114961
-0.062504031 -0.060263239 0.0061148051
-0.060900774 -0.059409238 0.0061181141
0.082402982 0.016411504 0.0064202808
0.083792776 0.017666293 0.0064165643
0.081252798 0.013740881 0.0064443303
0.083053842 0.014803174 0.0064466982
-0.054971423 -0.060881112 0.0061897496
0.082106657 0.012137832 0.0064724917
0.083709925 0.01299184 0.0064758006
-0.054014869 -0.063090965 0.0062266169
-0.052300826 -0.06203093 0.0062282458
0.083174005 0.01013395 0.0065076798
0.084376462 0.010774445 0.0065101539
-0.053034514 -0.065097101 0.0062610656
-0.051233478 -0.064034812 0.0062634638
-0.0497615 -0.063389398 0.0052681686
0.082638115 0.0072760661 0.0065395888
0.084241368 0.0081300745 0.0065428978
0.085443787 0.0087706223 0.0065453714
-0.052266032 -0.066539869 0.0062864115
-0.050379597 -0.065637916 0.006291626
-0.048808292 -0.06483686 0.0060452707
0.083491996 0.0056729647 0.0065677511
0.085095227 0.0065270257 0.0065710591
0.086297676 0.0071675205 0.0065735336
-0.051066525 -0.067890257 0.006314416
-0.049525734 -0.067240961 0.0063197874
-0.047922473 -0.066386953 0.0063230963
0.084345855 0.004069916 0.0065959124
0.085949108 0.0049239206 0.0065992214
0.087151572 0.0055644154 0.0066016959
-0.048885316 -0.068443283 0.0063408939
-0.047068585 -0.067990057 0.0063512586
-0.045290273 -0.066971488 0.0061539663
0.085199751 0.0024668146 0.0066240751
0.086803004 0.0033208267 0.0066273841
-0.046027362 -0.068978868 0.0063731996
-0.044397999 -0.069139868 0.0063897548
-0.042417161 -0.068121776 0.006172087
0.084663846 -0.00039106864 0.0066559548
0.086267084 0.00046292852 0.0066592633
0.087870315 0.001316993 0.0066625709
-0.04314331 -0.070529453 0.0064187516
-0.041326575 -0.070076227 0.0064291153
0.085731201 -0.002394947 0.0066911727
0.087334424 -0.0015408902 0.0066944803
0.088937677 -0.00068688189 0.0066977888
0.091155216 -2.0133684e-05 0.0067089577
-0.040071879 -0.071465813 0.0064580822
-0.038468651 -0.070611753 0.0064613903
0.084981814 -0.0048520644 0.006716026
0.086585045 -0.0039980039 0.0067193341
0.088188298 -0.0031439951 0.006722643
0.0895781 -0.0018892135 0.0067188959
0.09118136 -0.0010352015 0.0067222044
-0.03881719 -0.072855406 0.006487079
-0.037614767 -0.072214857 0.0064895526
-0.03601151 -0.071360849 0.0064928615
0.085835673 -0.0064551174 0.0067441873
0.087438926 -0.0056011053 0.0067474963
0.088641383 -0.0049606138 0.0067499708
-0.036760882 -0.073817953 0.0065177148
-0.035157625 -0.072963953 0.0065210238
0.08468549 -0.0091257393 0.0067682071
0.086689554 -0.0080582108 0.0067723496
0.088088036 -0.0071417564 0.0067730383
-0.03559985 -0.075514682 0.0065498226
-0.034090292 -0.074967772 0.0065562408
0.083748773 -0.01219714 0.0067992816
0.085752845 -0.011129619 0.0068034246
0.087591365 -0.0099444836 0.0068045608
0.088532388 -0.0086199949 0.00679596
-0.034225386 -0.077612147 0.0065889545
-0.033022936 -0.07697165 0.006591429
0.083212875 -0.015055027 0.0068311905
0.084816106 -0.014200962 0.0068344986
0.086513035 -0.013039811 0.0068346965
-0.033772308 -0.079428762 0.0066162827
0.082463495 -0.017512137 0.0068560443
0.084066734 -0.016658075 0.0068593519
0.085669994 -0.015804067 0.0068626609
0.086658977 -0.014762796 0.0068580797
0.083317354 -0.019115185 0.0068842061
0.084920622 -0.018261174 0.0068875146
0.085909598 -0.017219909 0.0068829632
0.082567967 -0.021572303 0.0069090594
0.084171243 -0.02071829 0.0069123683
0.085569747 -0.019801877 0.0069130575
0.081631266 -0.024643699 0.0069401343
0.083635323 -0.023576178 0.0069442773
0.084820352 -0.022258934 0.0069379099
0.079091296 -0.028569108 0.0069679003
0.080694549 -0.027715104 0.0069712088
0.082698621 -0.026647579 0.006975322
0.084088378 -0.025392743 0.0069716042
-0.018654855 -0.08269459 0.0067926943
-0.017051591 -0.081840582 0.0067960029
0.078341916 -0.031026222 0.0069927536
0.079945184 -0.03017221 0.0069960626
0.081548437 -0.029318204 0.0069993716
0.082946919 -0.028401742 0.0070000594
-0.019003419 -0.084938183 0.0068183821
-0.017800968 -0.084297694 0.0068208566
-0.016197737 -0.083443627 0.0068241647
-0.014597155 -0.082657844 0.0065782759
0.077592544 -0.033483334 0.0070176073
0.079195805 -0.032629322 0.0070209159
0.080799066 -0.031775311 0.0070242248
0.082188822 -0.030520478 0.0070204772
-0.018243207 -0.08684843 0.0068496251
-0.016733637 -0.086301513 0.0068560438
-0.015130384 -0.085447505 0.0068593528
-0.013527123 -0.084593497 0.0068626613
-0.01152305 -0.083617762 0.0065346034
0.076655835 -0.036554731 0.0070486823
0.0786599 -0.035487205 0.0070527955
0.080097578 -0.034515541 0.0070531266
